NCOLS 96
NROWS 73
XLLCORNER -85.000038
YLLCORNER 33.6666292
CELLSIZE 0.1666666 
NODATA_value -9999 
0.658221139846137 1.00507863613718 0.635236800881033 0.54483154280251 -9999 -9999 -9999 -9999 -9999 -9999 -9999 -9999 0.401512101350268 0.506395761954827 0.677296784690612 1.41993625782165 1.70481994807317 1.89247905067219 1.88030222218605 1.31007962732235 0.466351408497942 -9999 -9999 -9999 -9999 -9999 1.2784858107371 1.68486671909257 1.84927233548221 1.9449795925694 2.16952937018059 2.42273826796293 2.67634545674328 2.79230938904446 3.16764655869436 3.63446128251715 3.61786528664031 3.47934954534707 3.45108874618099 3.38709426860537 3.45998427438844 3.25015283187698 2.89742431956417 2.20934097587541 2.32416697354871 1.92844041503055 1.49193483871952 1.19779525629082 1.16577901929322 1.09395115409552 1.45697874034534 1.81989250612603 2.04732527801436 1.84126824903893 1.76839720020595 2.14566896899913 1.7659314988875 2.13148169106401 1.97551638101941 1.58750931463659 1.72814929959178 1.76253641189762 2.13569230949827 2.14119276571937 1.9188051531721 1.15098478887722 0.683942427867057 0.550471949064099 0.322337380867984 0.213239439094349 0.27742362120273 0.335291811894759 0.348872153290241 0.582298502158785 0.764552008304846 1.0766153645536 1.29240243638714 1.61110422099367 1.98515160536906 2.22963569251955 2.76444699340281 2.36494592382573 2.86599603683766 3.21256036712106 3.82790535312584 3.27505644294987 3.52532548310651 4.37288289051278 4.25175995214525 3.6086283682922 3.03876606425605 2.67185026650636 2.91990018072763 3.32097545734666 2.92447121376849 2.41748441713195
2.05125142967061 1.82243406525195 1.7397950334045 1.48876735515909 1.42098455015618 -9999 -9999 -9999 -9999 -9999 -9999 -9999 -9999 -9999 -9999 -9999 -9999 0.946944904672482 1.29215584037422 1.02445261007631 -9999 -9999 -9999 -9999 -9999 -9999 -9999 1.18157851006708 1.79855465460806 2.01147771537073 2.14451199490178 2.36452869838289 2.54285601536389 2.60406238843756 2.93623076429946 3.43130624227776 3.78564692804506 3.67171243215002 3.61524781719459 3.53642111278338 3.55918145572837 3.35082940550128 3.10217261381675 2.82497052618108 2.04330426658997 1.72860455896301 1.6674171128324 1.44838668837832 1.23584293915828 1.247488672971 1.07722228327655 1.22774407546623 1.31049689777576 1.39884501356925 1.69820049917078 1.52677714288074 1.22256608244272 1.05436710494415 0.779820393152652 0.715465521600265 0.595404667554899 0.620289319802245 0.684359709573103 0.540438424339237 0.526649443028452 0.628141651246347 0.433673421468343 0.368882290629961 0.376279406775682 0.289752143736238 0.351375791014189 0.426276311886663 0.411804514661208 0.636107765650771 0.909630252632545 1.40730426936262 1.8306657326194 1.72096085711929 1.89204279326163 2.5725013695515 2.21827445549188 2.64451890552403 3.25804307909673 3.88105075390238 3.61346494866977 3.97539237540934 3.9323753122398 3.54146630213149 3.28943340291247 3.68417374241768 3.18966716798835 2.68548753782853 2.68385639992217 3.88685464135335 4.06061097030406 3.00542220685221
1.75429092441092 1.7963734800817 1.69736595826397 1.88948226968384 1.77623056157187 1.73452223312518 1.58569365966522 0.747707247468429 -9999 -9999 -9999 -9999 -9999 -9999 -9999 -9999 -9999 -9999 -9999 -9999 -9999 -9999 -9999 -9999 -9999 -9999 -9999 -9999 1.39480503206667 1.7344842742144 2.04336115994557 2.26880240932798 2.58251592044729 2.6323800509522 2.72512850846711 2.93319601689857 3.41799145665847 3.55800546466682 3.77508234803104 3.64091011136682 3.55777789124441 3.50387383737558 3.19368815690746 2.86831004504645 2.78477955643131 2.99299882548829 2.81222473413189 2.19464167274339 1.67845589416424 1.45451302402336 1.3947481218321 1.0184816377775 0.841235407079341 0.838409317410443 0.823842705427414 0.727756103039676 0.662358029097615 0.721041801870905 0.681230151165526 0.59056809842997 0.561605548904394 0.705925130762596 0.689708390165174 0.634780073977806 0.654714334755655 0.446172651262539 0.272345597584342 0.29245057500008 0.306979265581137 0.293773144845706 0.32523932459347 0.514472653926564 0.621066961727131 0.909421617405843 1.62826934547231 1.97904419666708 2.55438796246541 2.14284288308112 1.76528661000112 1.93504087697579 2.24363328092543 3.21259825101423 3.6800389817909 4.55054633165026 4.00067539554775 4.01981298805932 5.68788102869572 4.56719943093201 3.64333790628682 3.65779069404985 2.59583075107715 3.31122645378757 2.9338598927421 2.65349026903368 2.40748884569155 1.72610088373025
1.99723354408001 2.50228571156622 2.26077941844692 2.15949584733117 2.07308237944241 2.07164094606881 2.02621502992585 1.89299113588317 1.73107024527794 0.94561210430026 -9999 -9999 -9999 -9999 -9999 -9999 -9999 -9999 -9999 -9999 0.717667185311417 0.702248570197357 -9999 -9999 -9999 -9999 -9999 -9999 -9999 1.2064062398895 1.82808622208446 2.03516746649242 2.25971729661595 2.49483167674645 2.54577694604653 2.76818345552982 2.95639255724003 3.11971705733978 3.33349361595936 3.51863011638256 3.57522751250811 3.52551511262166 3.33950618739848 2.88312323241256 2.7105428945234 2.76129848929777 2.66166502054024 2.67831804480438 2.35986284308269 1.85924889746018 1.72035391214017 1.48895699967776 1.17685574453232 1.14618615240691 0.974307589257963 0.832889945498926 0.829570727569155 0.706456206681606 0.650295041710451 0.659304345376468 0.812045263501516 0.813448809231069 0.663723651549754 0.528318544534192 0.341707764276748 0.40454017124612 0.373661962648408 0.439989416635576 0.521205927048963 0.464494723582372 0.406569639534742 0.492129577684102 0.721421128417054 1.10468644793428 1.76509694297717 2.52815662971251 2.36435802581784 1.98875533133652 2.08497469613997 2.45240260160592 3.14456377505707 3.89199469797136 4.8013654459357 5.22036447011863 5.6856051144294 5.6849601730307 4.12671074209328 3.33188145750839 3.11110608593146 3.16406179717876 3.11044224009498 3.13811500622148 2.51178813224047 1.50773429010913 1.33198648366307 1.17025521507123
2.65132805145742 3.15691126860648 2.76484530690611 2.62437601702124 2.39857437553751 2.22070225041188 1.97327823811984 1.85367262844218 1.73294796606914 1.23505658581341 0.268265616691987 -9999 -9999 -9999 -9999 -9999 -9999 -9999 -9999 -9999 -9999 1.50567204100028 0.52549549682939 -9999 -9999 -9999 -9999 -9999 -9999 0.338286500829497 1.53110159303676 1.8875096891245 1.92906630195625 2.15742846701778 2.47248861175663 2.6619685117842 2.78320528187351 2.83126760940877 2.94279331984625 3.20626328389337 3.4139325238321 3.25256163233807 3.13140073505975 2.83549722230194 2.98531720224259 2.94336228340931 2.98103066598678 2.59812574982352 2.52113883729978 2.26278992040824 2.03120337843068 1.52104909823371 1.27872722115771 1.16782745015827 1.03454664025471 0.870729019395845 0.801044426076933 0.688741060586491 0.694222511096035 0.782949949684789 0.770204153884716 0.571070065055632 0.432156068397744 0.383397142337369 0.542448928175991 0.599975704346644 0.854739887854194 0.76572796373303 0.604167399588719 0.505804761031043 0.374970686118625 0.43959111438492 0.931461209906103 1.86247334189206 2.56186088671944 2.5915442223231 2.27815318940491 2.31692160021181 3.25256166234511 3.48858643368814 3.84928111104226 3.80810380975313 4.4473092869605 5.00495678859621 4.64889015766673 4.88705816713062 4.52448579899234 4.7925458355498 4.17424200496218 3.07599821192825 2.21948831544307 2.68195966966854 2.06731648090926 1.38900115024202 1.34040780305095 1.11923409921632
3.080341694052 3.23882953875656 3.10057943482117 3.06789936323972 2.86971357952337 2.33167792422936 2.11983594974953 1.98847082704971 1.91637741076442 1.10921595216384 -9999 -9999 -9999 -9999 -9999 -9999 -9999 -9999 -9999 -9999 -9999 -9999 1.55198420768879 1.05950356446775 -9999 -9999 -9999 -9999 -9999 -9999 0.647996436492474 1.46211877070719 1.83569198002093 1.93322006454371 2.19511577653831 2.35527278557587 2.535060605407 2.5854558155818 2.7247112005049 2.89865715897075 3.07176860653685 2.99332128118412 2.8476360918773 2.79752537848755 2.81804761604177 2.82464814550286 2.55774510554804 2.39074099166631 2.23837947510502 2.08922332599733 1.72477320706081 1.38621297822421 1.20010920073465 1.12886931981509 1.01178629355884 0.934457998396208 0.879302091907471 0.710192702566542 0.689385940095666 0.676298746653179 0.636562961257029 0.623570595700199 0.67009654382347 0.90075371513312 1.4749214711155 2.40195052808257 2.94169320159569 2.09368050481114 1.13161954042388 0.474983453290693 0.362888736155035 0.693994911417465 1.36830818761043 1.82821898825105 3.54415965188996 2.84881200792124 2.26157603795176 3.01154853499549 4.06668033007412 4.33346958331774 4.11728425424412 4.00325481606156 5.4133534538966 4.13323536873634 4.13082665829638 4.00826216652707 4.82327232853258 4.01482472207386 2.9900399884072 1.68460117925763 1.23233407295896 1.31831130219157 1.15982338622027 1.0819450619394 0.855839955467866 0.813714341564253
2.97061784659825 3.02110783402182 2.97608031390153 2.77256487405906 2.87041538427063 2.7378932199576 2.46641917696896 2.30924000697316 2.02333207315751 1.96847963915833 0.543286509171455 -9999 -9999 -9999 -9999 -9999 -9999 -9999 -9999 -9999 -9999 -9999 1.19332415233311 1.60330878102973 1.00739259464681 -9999 -9999 -9999 -9999 0.786996547740589 1.55077031960599 1.30847254568816 1.64799495601994 1.82150469458404 1.93285968744591 2.06054527888313 2.26711437056426 2.31697850106917 2.40525076280607 2.50981558918993 2.62735379604891 2.58314183738004 2.50057871585239 2.51514526031957 2.43802565664685 2.33101408589464 2.24391780021576 2.06834070384355 1.87504842386741 1.78673825573206 1.58420907991309 1.4412930606634 1.18182507607296 1.13461631391046 1.02694088982 0.997693837883055 0.840969859742635 0.714213695236529 0.859083319341049 0.86767534130102 1.00446504741095 1.22700435681875 1.80045135860553 2.86812040052778 3.35088632886393 4.19062942187553 4.42559213890342 3.70771177792444 1.85972309502711 0.454423266202895 0.423829571269196 1.31622495367543 1.88280588991705 3.03997995421429 3.75658950187239 3.3616026995105 3.01046736619328 3.75617226892779 3.90555606647549 3.89478283248036 3.70365278508399 5.37942148843557 4.37487450303984 3.35306757090614 4.02288561935337 4.6005243388875 4.30894535130333 3.03197592028333 2.35458996778576 1.88978574592428 0.975578346315641 0.916268677239445 0.803472194740771 0.740331203769423 0.804705049150878 0.995304009375593
2.90709745031227 2.97837532765142 2.88532339389607 2.87121198127018 2.79963065769763 2.86495288696031 2.61335620014127 2.36405455707917 2.00045793599956 1.69112581340244 -9999 -9999 -9999 -9999 -9999 -9999 -9999 -9999 -9999 -9999 -9999 -9999 1.38508523473868 1.91482210065849 1.73338933217895 2.41811031155942 1.74111398740131 -9999 -9999 -9999 1.65220561946476 2.18714967151109 2.32670857768519 1.89964853619457 1.83258138231434 1.98598617628291 2.13349211800772 2.18756697197154 2.25353402260474 2.19894712844051 2.19572272901919 2.13842355815343 2.05936928031982 1.92773861028329 1.98139616378666 1.73573609307638 1.62149809843561 1.57789308474586 1.61155943535433 1.49073992071491 1.43235958104693 1.25983617402218 1.09393217839101 0.952154187541217 0.990353634785058 0.820959733655556 0.826554997132467 0.874825892378584 0.98344964408705 1.28853315933209 2.01614363818678 2.82421192560111 3.5490911070392 3.73665535737183 4.1334819666247 4.34310486017972 3.74022109442147 3.09141834427348 1.73789830690175 0.519992040841603 0.453607691623393 1.36314918904583 2.31544220042567 3.83469542208094 2.47042119393443 2.87020676029657 3.91756215488073 3.33834923580641 3.43750841322499 4.11058887251665 2.90675603016457 4.45115955080223 3.22845467827882 4.0797676022851 4.71885918775661 2.97039022816528 2.57834320090973 2.11541666983241 1.85520896659449 1.23250479803633 1.2693006845471 0.843018298109445 0.559443320075501 0.734603181627681 1.25010611616056 1.12334995165445
2.81922357709628 2.80753991437982 2.8328228444971 2.88513373437388 3.08929407060449 2.52838423314196 2.33581267735438 2.08097268667625 1.92106224552001 1.59276318047109 -9999 -9999 -9999 -9999 -9999 -9999 -9999 -9999 -9999 -9999 -9999 1.18268011554176 1.92221921961737 2.06534387784464 2.44352603785033 2.96855040627077 3.1000483701548 3.3988158902326 2.94372265300535 1.72924940283882 1.62409656592066 2.01453138221291 2.01449344580742 1.77385969751627 1.78358972912173 2.02974292809288 2.24412642418983 2.13578713175761 2.13377667480686 2.0838366639892 1.97386627115942 1.88365940277748 1.76026037760312 1.57590154723641 1.46437583679894 1.4573390874361 1.32174430683254 1.40216421274461 1.2964044758579 1.24817149826287 1.26122076655251 1.06825091976691 0.949138427097484 0.798939103731723 0.651945169387123 0.759449895594091 0.969281341856438 1.12367235858883 1.56380061406655 2.14866572748219 2.99134867811949 3.48763807606308 3.73166698636172 4.01588685140659 4.06613031595941 4.24388863937032 4.86924814626384 2.79777189385654 2.62392080266058 1.14825353647118 0.531182550916463 1.47080562993001 2.97577685266461 3.0058394998109 3.70475285832399 3.12927638637315 3.98326368818427 2.69489515874873 2.81658715820221 3.0856334362779 2.75447035640723 4.69207788589956 4.16549822237671 4.12219667742563 3.4945041678644 2.20035067792094 2.60971456027359 1.86554595818259 1.35848331124035 1.10203108709363 0.956839018545926 0.694981207323457 0.743327973505124 1.21008581147407 1.14851908755877 0.762446650326271
2.81431110890419 2.77603581885641 2.9254195413865 2.85391413563551 2.40794401504164 2.10361921290299 2.03456049900802 1.81044694880034 1.46504479883644 0.46151994619683 -9999 -9999 -9999 -9999 -9999 -9999 -9999 -9999 -9999 -9999 1.23185630642922 2.14754666728505 2.05751054648577 2.21442416914486 2.59105104905166 3.16362553976821 3.57858465559073 3.90090911561307 3.94060703962134 2.63152656059705 1.87074293066149 2.09436333010302 2.00916377467778 1.88853391956055 1.96739851536669 2.2211574722743 2.17833008363047 2.11520801585131 2.24917168855555 1.91971558189342 1.6970814464754 1.78558127413294 1.64566201336631 1.18258372916525 1.16562729617652 1.0318533167524 1.0224836509921 0.965070674660735 0.930892220086881 0.911394181086222 0.727647414712809 0.674572747103237 0.447410617185063 0.590530155460434 0.945496775977167 1.06009512896133 1.29361631134186 1.67301236130579 2.10096380705178 3.0301740572996 3.62609684898311 3.81297834904148 3.98538797685679 3.98223944274471 4.37060690122885 5.19747136100705 5.52664300839293 4.6258262634637 2.81541115213714 0.995360893353993 0.657900784643394 2.00356853370615 4.26706626027047 2.97471469332483 2.46615362963225 3.25282714966773 3.71063266359651 2.47709754369419 2.62365524782212 3.1719900033093 5.11936551581611 6.07952981746559 6.97624964065064 4.68213920031299 2.36105773858202 2.14824847203231 1.56778370408897 1.69349666995628 1.08551087025577 0.92719365685656 0.672372585619729 0.596751310551649 0.653974632987144 0.76269323133567 0.874237917477652 0.761963764782355
2.76004665543227 2.79375092744272 2.40989763865088 2.03767108921285 1.91721195917299 1.92369866441407 1.7529201595016 1.52785825166886 0.704457472170177 -9999 -9999 -9999 -9999 -9999 -9999 -9999 -9999 -9999 -9999 -9999 1.93358041913623 2.28416566332113 2.41048564168341 2.44718667217692 2.62485017332849 3.25476183883214 3.72201282006549 3.86792562780528 3.87004993148132 3.3563298767259 2.10130525720652 1.97367656662666 2.03512954509045 2.1601597231747 2.43561682617871 2.46471215124808 2.19306739818559 2.34083895476295 2.42106918614931 1.8121350175711 1.71612424673467 2.01855240113906 1.55845193347448 1.26675908603693 0.798711487174191 0.826460141115207 0.810603770113827 0.890378798392165 0.525326881622307 0.206926475576289 -9999 0.2684158357056 0.594076987134576 0.870065173559363 1.07659638884909 1.39328767899607 1.74226074972648 2.16122185250743 2.76457971455883 3.86881706206769 4.19531424162759 4.43128216462558 4.3264707703604 4.54925665890216 4.91065303597889 5.79978608818463 6.98078280480186 5.36219944059428 3.28619003153752 0.881578120575649 0.774149277494593 2.35614530039698 4.65628719410624 3.93552389136245 3.36116641209291 3.98931414351656 3.16609126359195 2.06898556272288 3.69291746498907 4.90904080251031 5.89750387724017 5.43613264126527 3.60088979167682 2.54012476670874 1.22421622230975 1.48470839607656 1.26649357058271 1.08733166393344 0.815402414085902 0.781299817319516 0.651584785725279 0.467927747915468 0.443460375498728 0.421325930732087 0.400329510614458 0.20761288764765
2.67736971718637 2.34320980381503 1.99065200907783 1.83235377138312 1.80600868192606 1.69368635948552 1.0598829003911 -9999 -9999 -9999 1.1469878759224 1.59777044841723 1.75953963090928 1.40933885010138 -9999 -9999 -9999 -9999 -9999 0.569100528335826 2.15154871425757 2.49972518048667 2.60303820301208 2.85723333481088 3.00045281529749 3.26090708641672 3.63713566032199 3.76533334447195 3.75410490361791 3.48792258785165 2.86298031390273 2.18077682049706 2.18585996125418 2.07647746643229 1.81185050578253 1.46718293951068 1.12086525962797 1.0096050918386 0.789495067388079 0.627427521105725 0.319760908546259 -9999 -9999 -9999 -9999 0.326342442610718 0.451745325061568 0.673572623576239 -9999 -9999 -9999 -9999 0.290745062759493 0.918468848100154 1.76270710696795 2.79428200711261 2.2840328671475 2.15435580571668 3.18706870800507 4.27897755642342 4.62576940011514 4.66651044399371 4.55081201401867 4.89310866747347 4.58794922690512 4.42401778932801 4.68244257903054 3.36939815447797 3.10448662202555 1.06354710743138 0.885997436126136 2.21706058053716 4.71745557826209 3.63527694899322 2.60491589379624 3.46294311897129 2.8090572805785 2.64793294946402 3.52035613656235 3.90297655594055 3.97563892078538 4.45597715922617 2.58610065195585 1.88758556193549 1.62123258110595 1.5462940919455 0.975768039595759 1.02821167688473 0.67040001818847 0.512215585959373 0.284099993467767 0.27795469899718 0.314921299332676 0.133215756507409 0.0920764253817055 -9999
2.28864190410971 1.97809586154731 1.82482388625765 1.69433122586661 1.69336390378969 1.57946733679838 0.667344237725118 -9999 -9999 1.10240168721627 1.62857279920747 1.82713785695765 1.93758247361052 1.84980337014153 0.559161835247501 -9999 -9999 -9999 -9999 0.597114727738107 2.20410614951039 2.58151065446311 2.72994609438576 2.84517038305708 3.09212014902074 3.26388491045496 3.4554512302654 3.43490998324875 3.40974083984267 3.24869238904094 2.43385290710224 1.84113551287938 1.42151052675313 1.38351969973247 1.05856393045305 -9999 -9999 -9999 -9999 -9999 -9999 -9999 -9999 -9999 -9999 -9999 -9999 -9999 -9999 -9999 -9999 -9999 -9999 1.35958339948386 2.90345584045163 3.96994890256498 4.04357856698144 2.41133910203152 3.23655356447615 4.24273161276063 4.538407522089 4.79577016745527 5.37397791056655 5.63006981762955 4.49910801660868 4.48122219794852 3.24641638475349 2.66974495728923 3.19374506526658 1.16118901429873 1.33572299080064 1.98482913466971 4.6176894333591 3.81443883688808 3.14418442600564 2.73694489984135 2.07437216471692 3.18300984269455 3.44230703469178 2.44614351479781 2.19632971900888 1.84396156879035 2.66462387262485 1.55378607067252 1.48702237052744 1.21714154779406 0.845844376525701 0.64902426027205 0.381798788064401 0.132071102177094 0.126306663674184 0.129005091187146 -9999 -9999 -9999 -9999
2.15520935608592 1.93257519816262 1.75054929544601 1.65768706622342 1.59782734927459 1.56738536057862 1.45720632126951 1.10042913103765 1.33316753091155 1.65704220734409 1.80507928875288 1.88136441153288 1.9333338737602 1.94277941608237 0.828178933348246 -9999 -9999 -9999 -9999 -9999 2.13940988219102 2.46590703174389 2.71223092578537 2.85431238912472 2.98609490980789 3.08863025477505 2.89296711824507 2.77099056949421 2.78648659715571 2.81973572232134 2.08802837798568 1.54822875110286 0.822909713284374 -9999 -9999 -9999 -9999 -9999 -9999 -9999 -9999 -9999 -9999 -9999 -9999 -9999 -9999 -9999 -9999 -9999 -9999 -9999 0.299504202387502 1.30598277309402 2.63697002593965 3.57168072490681 4.2114741301291 3.41152373837454 3.01194681849175 4.02140624207251 4.88328376109635 5.40003848823504 5.8822165185633 4.88377683684489 5.02107871818694 4.64318116749271 3.2797033337982 2.54663039139112 2.32625335582277 1.34495984913466 1.38141435300654 2.64560002181392 3.33567487300509 4.79702203132781 3.4779271214359 2.20901858769542 2.63124207131376 2.95794785234244 3.28359161656481 2.17740065294848 1.97079361736009 1.78097231218834 1.70425095450307 1.96669674062647 1.56065210996151 1.19489330881446 0.668996463081716 0.374875857295248 0.137757585192609 -9999 -9999 -9999 -9999 -9999 -9999 -9999
2.17812144465289 1.95046101682278 1.81528352917791 1.73247377975485 1.60943513167829 1.52624605570909 1.51247604072561 1.55507579593294 1.66038038597485 1.82709991305039 1.96214466453571 1.9497592720896 1.91852066388881 1.89359808086229 1.38574393811799 -9999 -9999 -9999 -9999 -9999 2.02790309119485 2.37809003687998 2.67018119969627 2.82849842434812 2.92608340222651 2.87276729137612 2.82967434039206 2.52851696930151 2.44121211966267 2.34732561499347 1.97295584993986 0.984194501440824 -9999 -9999 -9999 -9999 -9999 -9999 -9999 -9999 -9999 -9999 -9999 -9999 -9999 -9999 -9999 -9999 -9999 -9999 0.599844446034018 1.05423434815476 1.12767439430872 1.35413985912365 1.74339873686668 2.28926780603893 3.00968971864207 3.16440320232294 3.11580990014244 3.42872670173578 4.2448369519848 4.99767352386438 4.93197193054675 4.48052037819774 3.72212666679078 4.4188208393544 3.20789448181382 2.45841512803448 1.41458757160326 1.04695103466148 1.75016995389634 3.35507798284632 4.02011653181561 4.25181677048324 3.00238745194957 2.09686696782696 2.88887021900617 3.03121726719104 2.82574818873581 2.00305644099341 1.62292064237496 2.085600635578 1.93151305382636 1.69068960850422 1.18489771486877 0.922376055934379 0.47304882789125 0.192604903928487 -9999 -9999 -9999 -9999 -9999 -9999 -9999 -9999
1.9954316960998 1.8776658408008 1.81073146809067 1.69288974748244 1.60181038678468 1.53284655516313 1.57495320461488 1.66434446653483 1.84523231459539 2.07410666989254 1.99220730418024 2.06346613454815 1.94604172940389 1.89835880343239 1.59572203630658 -9999 -9999 -9999 0.60058569691618 1.37070316982771 1.90873372392422 2.2780962585405 2.50736881481454 2.71242063031813 2.77063021490169 2.57320314429172 2.42336416989215 2.28003085768378 2.00273397029406 1.91320991970223 1.52907214912886 0.740655145751655 -9999 -9999 -9999 0.461258015646657 0.730402736519092 0.972107420272694 1.10961786182383 1.1870030615947 1.30387743011897 1.31324709963014 1.12213605794533 0.95001091566243 0.536580921298113 0.671956824895731 0.74833677931227 0.746041758060621 0.687727096310405 0.952476626358084 1.11521312905162 1.10555892524658 1.06762503284121 1.09030948797168 1.23149953955391 1.27066629387115 1.33213820677977 1.61569423348992 2.19210009111219 2.65650603697917 3.46631922650578 4.2085151805216 4.32309469283295 4.66514477840644 3.15533699404868 3.17832494792488 2.94461407226424 1.62563291157473 0.683032021651019 1.6096627238551 2.65193497393126 3.91496370990097 4.55335352063226 3.99855104686115 2.57210308605524 1.94845052986499 3.23556726294384 3.66406876781511 2.32543777186607 1.45618213584403 1.14085643251582 1.35935578105089 1.80138074802784 1.19265520717457 0.605305418611408 0.563976422337191 0.237035759295423 -9999 -9999 -9999 -9999 -9999 -9999 -9999 -9999 -9999
1.88895117501043 1.80509827571003 1.77065427755035 1.7651348718809 1.80272738914915 1.79534924964566 1.77638229219033 1.8592868488692 1.91537212977672 2.04254559849416 2.12673993294578 2.0852971518358 1.98359633277193 1.91027005457477 1.73431358664584 0.4032913924728 -9999 1.23154769148248 1.8302674191161 1.84494784031562 1.92111916888266 2.19866264665898 2.26645056973834 2.37511221284174 2.41077013846846 2.46768993027575 2.21140846871521 2.05519654577873 1.80428269175332 1.70246807097473 1.69459675069803 1.62980563861405 1.57421347846564 1.44148273143824 1.34651517049324 1.34021812852524 1.40954235974987 1.50043202341663 1.55693459728284 1.74607309216624 1.84828601144461 1.7520476821893 1.60528136909083 1.45005575518842 1.41011133831645 1.38228687157853 1.32375479379033 1.26952825421862 1.13220749094408 1.08797655281982 1.18095256875361 1.34898086055905 1.32627742597319 1.17624877704791 1.38037118437479 1.56588697383533 1.65677666750914 1.81181259188232 1.90374540542643 2.17080019100324 2.22020909964572 2.19141723581327 3.22989615666298 3.03652799637409 2.34730668805041 2.57236861838843 1.89752426252558 0.961087622147124 0.88218507493197 1.65624558033749 2.92847323073397 4.41174621360015 5.02828614011482 3.36044568790434 2.66086845354773 1.91495489683212 3.08671454506602 3.48890890438749 2.26785410421526 1.86334576669204 1.3474635281183 1.10988339040613 1.16135971311994 0.67131043753259 0.322204608137351 0.220167500130321 -9999 -9999 -9999 -9999 -9999 -9999 -9999 -9999 -9999 -9999
1.8777607080707 1.88301452889463 1.94695215062345 1.97581984225633 1.99457816823584 2.00514278575867 1.98659305374618 2.02325623785532 2.14618106171188 2.36151293043739 2.50302544521721 2.20655288637697 1.94507439982521 1.84422709362177 1.6363682016626 1.4765336633244 1.61009897001301 1.71312750325513 1.81602323282186 1.86914968415006 1.90719738577192 1.9770716611183 2.10665391529331 2.15926828891229 2.19902303125854 2.12992638095808 2.00514274074811 1.96908658413745 1.85666941693229 1.72771308719179 1.65903373735178 1.4814460902568 1.39328766024167 1.25496166474087 1.17579357206446 1.24213999988069 1.09608058334978 1.63268861038591 1.91946905152091 2.3686634740132 2.55300333242628 2.54742703340124 2.0729875721866 1.69144823158947 1.97756478937918 2.11006793672801 1.83772140142354 1.71646565938061 1.27225952537906 1.18148365592526 1.71722436498523 2.33770937760097 2.58025885810642 2.68178900460525 2.91089088081249 3.70714278435434 3.08680938232888 3.19560394163409 3.43796365009093 3.43644626888873 3.28306049188435 2.28630894645256 1.66821372483548 1.74512472703942 1.61167324457082 1.83853697037672 1.09998264872682 0.801347900441933 1.02709263356654 1.64623103694346 2.25489965818496 5.32931073003525 5.07703126293491 3.86919647113321 1.86471140977402 2.06559045322771 2.15905963493118 3.35016557466832 2.44741425310109 1.86933934742313 1.15284355646919 0.785074238357306 0.942518944437169 0.56503857229977 0.344737356092368 -9999 -9999 -9999 -9999 -9999 -9999 -9999 -9999 -9999 -9999 -9999
2.09813777364609 2.10024306785969 2.10280362894629 2.12630367553522 2.19191037157591 2.1902602842212 2.17438489250475 2.34131308856491 2.473019676423 2.52631685282857 2.4404534215598 2.0554241642117 1.66326335024494 1.56784059369369 1.53559679077544 1.44980919480886 1.57076148311664 1.64587064484214 1.69220694469585 1.77831692134065 1.77188712445869 1.81342478034033 1.82715682891127 1.87542773541003 1.84627552448682 1.82076496843481 1.81996837143526 1.84955680976198 0.936133732396413 -9999 -9999 -9999 -9999 -9999 -9999 -9999 0.931752372943544 2.21550530794003 2.69055170663203 3.2978357353432 3.86678756564746 3.34741538406658 2.17468842125751 2.37399317514988 3.06935980607576 3.36814626059838 2.50915170584464 2.32638613699289 1.46048762154818 1.41001652355887 2.50611701095609 3.07059267548939 3.62657108030796 3.54030936554294 3.78868166044243 4.08834059977912 3.38493206603264 3.62429509102403 3.52437711047793 3.87812982321974 3.66215311812017 4.10129509081998 3.15840964034625 2.69487620179862 2.46742442044785 2.17778004701048 0.866006251985641 0.669887908596767 1.63242305554744 3.24256603089062 2.96031878391389 4.50527230366274 4.18981392043819 3.30745200274274 1.92857313243569 1.70846163670229 2.54602346891728 2.66456695676397 2.91413420717687 1.63820799355007 0.858400494049177 0.658887067421303 0.573896139721007 0.454707774240587 0.290378054104945 0.06899875700771 -9999 -9999 -9999 -9999 -9999 -9999 -9999 -9999 -9999 -9999
2.20128007109413 2.20899962324356 2.2060217842018 2.25514622606628 2.26853689950008 2.25912928608165 2.32680336243572 2.37926605794857 2.38590442629226 2.31206606288413 2.09233387869336 1.66819474538009 1.44937297303167 0.296241874062452 0.995190185155585 1.39362906913672 1.48654819921667 1.53591922396599 1.62007559200507 1.73084261934321 1.45637691344268 0.661033379388745 -9999 -9999 -9999 -9999 0.912842322909619 0.555234169173245 -9999 -9999 -9999 -9999 -9999 -9999 -9999 1.33990593898937 2.36403556262025 3.28933859565665 3.65160745754744 3.81235241710521 4.39900040654744 3.53501756330295 3.2228973136986 2.88606312754707 3.88078520656567 3.78126556952992 3.72889780130106 2.61722547344544 1.95552517062275 2.70987904118516 1.92445728749933 2.94116218193989 3.3506967143523 3.65270753078744 3.53499862885813 4.02677388711645 3.51874393310081 3.64971077230438 3.56449220741671 3.7531186020856 3.77855332283543 4.30644171357938 4.3849649117431 3.58349713878634 3.6184721791071 3.35073458324195 1.35273632839762 0.598610085645385 1.71422755398984 3.2507218404506 3.95619782952809 4.1911794059832 3.54857896181413 2.44889369789779 1.07411172682965 2.09345293513962 1.9695796973948 2.53631243927249 2.57050987705262 1.40620415861383 0.845009835618892 0.662414926204097 0.482171929521111 0.431169779993514 0.308131130041515 0.179484893094684 -9999 -9999 -9999 -9999 -9999 -9999 -9999 -9999 -9999 -9999
2.259451756781 2.30336026921648 2.31625777688061 2.33560406838384 2.28905913705431 2.30620526707403 2.2313427032369 2.25778265996386 2.26110185163747 1.87176711608697 1.63464219648634 1.59589272762602 1.00580809706417 -9999 -9999 0.73796695908021 1.47569910741407 1.53039982579831 1.63519227061514 0.8974032017318 -9999 -9999 -9999 -9999 -9999 -9999 -9999 -9999 -9999 -9999 -9999 -9999 -9999 1.57411502535397 2.9495834188084 3.27839463658415 3.12425014647338 3.56217822921495 4.28330194656535 4.35069160115199 4.25244277743712 3.71651236384439 4.49451798910891 3.80861590996763 4.23954522476242 3.76618689484119 3.4602687711735 3.27082684506022 2.67520747710484 3.47068163557259 2.76962496392103 2.98825708237357 3.65593196771756 3.39136179539875 3.18813091235541 3.29480107796345 3.39111525752447 3.51339522250169 3.60299516090803 3.76853877193964 4.28899209231569 4.44270028000533 4.83233852180332 4.07111862695544 4.15151960592445 2.28128275906513 1.59052506757856 0.592654448821552 1.52558220237084 2.83858879554258 3.14780716143553 4.0863300978178 3.23698976187262 2.54672526616278 0.785586355450769 2.04294391574833 1.80921407938671 2.25654981305551 2.35876269482508 1.33966810690876 0.939048010892461 0.605684762036519 0.549049423879157 0.293166197053426 0.108406974257893 -9999 -9999 -9999 -9999 -9999 -9999 -9999 -9999 -9999 -9999 -9999
2.3249067071997 2.40498520046584 2.41947597714668 2.36824621106155 2.37846935592436 2.39117726408039 2.25207356476518 2.14872256832547 1.86945315288873 1.66453414106055 1.54022468716486 1.28790727990814 1.48209098289405 1.19748304331195 1.2301769565802 1.4005520149094 1.44825395221878 0.912519870026949 0.547169611034351 -9999 -9999 -9999 -9999 -9999 -9999 -9999 -9999 -9999 -9999 -9999 -9999 1.74550047337012 3.20205263545207 3.58036753911907 3.87192774229365 3.62313810942491 4.11193558865557 4.43304615871967 4.49580778188518 4.56175588307004 4.40977370055666 4.04562708786762 4.68022349810573 4.67984411904726 4.18366853782192 3.9758855261755 3.51240901099051 3.73117379058499 3.39836062335961 3.21100499700104 3.54288883106732 3.19196221174528 3.12739868058547 3.15490078164869 3.05348445936987 3.18682218513432 3.30166706474011 3.62941612317608 4.10040365655757 4.40482330346084 4.54072151529427 4.9978250894441 5.04336488982116 5.05743835853979 5.00823810387841 4.21636760386227 0.83867486474715 0.649138063862216 2.05257913259622 2.64664320920007 3.22126616078871 3.74979943291728 2.60358824713384 1.51869720988263 0.764646841816823 1.18518220790294 1.7119894636026 1.95493722760431 2.16482559347842 1.29868049514888 1.0163573265997 0.65370909877852 0.550149504620911 0.408485308921799 0.249376611910893 -9999 -9999 -9999 -9999 -9999 -9999 -9999 -9999 -9999 -9999 -9999
2.4045679375142 2.48383083932187 2.66014765434156 2.56880279131766 2.44250183742133 2.32636716503926 2.06856828476771 1.81630772210515 1.66897241543658 1.57667919478762 1.36148007722517 0.947707188617113 1.53064636367258 1.45891335824302 1.44337939417602 0.766460448807437 -9999 -9999 -9999 -9999 -9999 -9999 -9999 -9999 -9999 -9999 -9999 -9999 0.785760094360631 2.04918404091774 3.14006859232191 3.619591246806 3.93535313627803 3.6903948928203 3.50231852726964 3.85383316462773 3.98701912976667 4.4443504123706 4.3039950142216 4.16633268826591 4.52330989795192 4.86039069699534 4.5474737603703 5.08706471826848 4.7415816318049 3.97524065979441 3.56898742766067 3.3451393647756 3.23086343372934 2.92826464426871 3.11895834423339 2.87473980441961 2.87432255647149 2.87601057272993 3.04453205281033 3.29802543987596 3.42123479802637 3.68400304734736 4.0583538854579 4.35700766383507 4.56902024336409 4.80036026997266 5.80536238720967 5.20534270378903 4.276758400481 2.92010878969816 0.550851284987448 1.22070733735603 1.86129735083051 2.8168716474855 2.90025041298395 3.26494711480531 2.63911333907812 0.806848313527904 0.520011012795232 1.2685988873016 2.04004196077021 1.83717137980707 1.54553543135144 1.49580409702017 0.929545537705885 0.757401453476401 0.653841878073194 0.533724128796787 0.402586573893048 0.314010883739436 -9999 -9999 -9999 -9999 -9999 -9999 -9999 -9999 -9999 -9999
2.47618718999048 2.65790956395432 2.75230812382745 2.61500631750302 2.35098629433062 2.05144111169809 1.80864508581661 1.67813344597017 1.61254572188312 1.37970734979095 -9999 -9999 -9999 -9999 -9999 -9999 -9999 -9999 -9999 -9999 -9999 -9999 -9999 -9999 -9999 0.929803896480091 1.47815607199409 2.09808089529401 2.80759682273894 3.25233404391214 3.29878410797178 3.72064718448526 3.8132818102784 3.95073537722833 3.85472455387957 4.11191663920722 4.29274753389809 4.87025347226211 4.61510990782064 4.18419963249533 4.47433718670591 4.82858305021387 5.22351307924833 5.21989035882195 4.57326885071617 4.06981001976252 3.75323244881089 3.75418074642186 3.93167349248901 3.620330980457 3.03618659873168 3.14226879131422 3.33049688748334 3.49801299655492 3.77794637035455 3.44856614400517 3.69164674168932 4.06186277416251 3.39669149653543 3.99811481945764 4.43809127305017 4.91860022156481 4.88442182325416 5.02796368441899 2.3745621837235 1.01030687126742 0.687299578451442 1.43704445331133 2.06718367723386 2.27225439717523 3.1591683984632 2.54289400428172 1.90391608174236 0.66072686305965 0.44820211580028 1.44189999438988 1.79889603724695 1.75477893834622 1.15382985425063 1.46027897506884 1.03236543197042 0.576191139405093 0.41345464515104 0.284574165716254 0.317614603142859 0.406683438436306 0.241767255942298 -9999 -9999 -9999 -9999 -9999 -9999 -9999 -9999 -9999
2.53365707093009 2.53388462934897 2.39131007525755 2.19392084353018 1.98477224881587 1.89441366481899 1.7646038147163 1.69412258688903 1.58126920728387 0.659386860996845 -9999 -9999 -9999 -9999 -9999 -9999 -9999 -9999 -9999 -9999 -9999 -9999 1.08600550355745 1.97325929242238 2.04707871763481 2.23441536453799 2.47692686362738 2.67147094746197 3.04762364855625 3.18754293932992 3.43054757418194 3.58309884028656 3.88664598737224 3.84491865696488 4.0566847436302 4.13543548520928 4.38866342996286 4.76271092686466 4.95926540763591 4.69558675960064 4.71758843444981 4.86082684938124 5.30414149660805 4.97240948318136 4.64849184416343 4.34978115742714 4.06440425076906 3.93871027936066 4.59085116312884 3.31532330051415 2.99675429707773 2.7010214493832 2.7851588754757 2.96942287608131 3.30329830767113 3.21337588356191 3.7938975748679 4.22471302793388 3.52877749345903 2.92063991437862 3.2570947364752 3.56553541730814 3.19173460831583 2.55581047639771 1.92443834180186 1.09696689953573 0.780560123052766 1.36646840322472 2.04319045737349 2.40885445126473 2.62576060204981 2.10048965824629 1.24174168262651 0.639958059499551 0.527465026985155 1.50765841729814 1.16071484298796 1.20991511265286 0.908340512368598 1.38644060415894 0.908587084000795 0.239475862729824 0.23256677083432 0.401941703761075 0.311545181483263 0.236910202321175 0.316590394274375 0.181234970484351 0.110720942144727 0.184861265499854 0.0853862095544205 -9999 -9999 -9999 -9999 -9999
2.38981161349665 2.23227211141361 2.11628909463239 1.90733013693499 1.8299070420183 1.84976543373604 1.74364532725328 1.63401629455711 1.56368681235183 1.52448212162909 1.329786324055 0.812734709097491 -9999 0.407464112010366 -9999 -9999 -9999 -9999 -9999 -9999 0.8748186813108 2.0761930146578 2.72142990772798 2.90692680025251 2.26100706688694 2.4373997397141 2.56741822129261 2.72235929339941 2.97653550575691 3.20127495789382 3.54222501523788 3.53736945540492 3.68242874278251 3.70513222237894 3.86993609975955 4.13780646179129 4.34132194664433 4.48964352483817 4.67396440379586 4.75013563484001 4.14537431332931 4.33176263261448 4.64997122144429 4.56516999452588 4.6873550322191 3.94075872522923 4.18378232453312 4.43689633254027 4.18639986899645 4.43317884986865 4.11717049753996 3.88624771887951 3.34333748678835 2.72655097738884 2.50987246004025 2.73004090164158 3.50216682665822 3.73737608156039 3.19076730124243 2.78935063448274 2.97746485391953 3.22835982601244 3.15880793884603 1.9024366857071 1.07862586651491 1.31174872789037 0.720586593136566 1.38443008719411 1.95622698287178 1.48393077478152 1.69177070979058 1.57703957188542 1.14675517598405 0.686332273253482 0.859481610339064 1.13628541822936 1.15984236942654 0.713549845649166 0.824259983382579 1.00209418335535 0.858438445458194 0.211703115007842 0.258210097741525 0.327344661004481 0.140692342558531 -9999 0.187364906974682 0.102039200060636 -9999 -9999 -9999 -9999 -9999 -9999 -9999 -9999
2.15077108921165 2.06050730496883 1.8703256377028 1.76363650014114 1.78292588328525 1.69103097613959 1.67291752404293 1.66098731595044 1.65459545547398 1.62466562700661 1.57305651187005 1.48256516170658 1.14468775441097 1.20890987386257 0.775597411816229 0.741941302986994 1.18760636446885 1.66231501137429 1.77780483612967 2.00645149797625 2.19022235531747 2.56353001354362 2.87329834103896 2.77193889711222 2.17237440554695 2.39773975961309 2.54845126383728 2.70229227770761 3.04760468410438 3.28998347704127 3.24120041031392 3.32854324887059 3.50975359763754 3.66812767063443 3.84499461979701 3.94024671503586 3.98544488521591 4.23106703452422 4.55847458279136 4.26951300463881 3.72425091045273 4.15170926544665 4.01916819669584 3.91526715613437 4.21602624372866 3.79505466149168 3.85563501260794 3.73115488614721 3.32182896270534 3.69528844157108 4.02368226136349 4.79042153187376 4.99634574217028 3.93472733937346 2.79356123791348 2.67693348978286 3.43297539910899 3.71457771969054 3.41161853062683 3.13322153248831 2.86436489893129 2.48783286378911 2.12453974895699 1.40389020291735 1.21729326715988 1.53385177801218 1.5182230310701 1.80978309546209 1.52059389887657 1.37240507184581 1.18324759375614 1.2087202246553 0.7949370567592 0.792926566050527 1.03251718884505 0.66472889502865 0.750459539500979 0.526933952941585 0.554606744386531 0.431909496765547 0.331850062075872 0.10994330115756 -9999 -9999 -9999 0.160488725657371 0.148724089870149 -9999 -9999 -9999 -9999 -9999 -9999 -9999 -9999 -9999
1.99713869931539 1.85261048410592 1.7721147353899 1.75777570433104 1.78042223805954 1.75028376311282 1.72964769383683 1.72266786033488 1.73108920222804 1.77666677397186 1.74474540799504 1.72839588997838 1.90050206405853 1.84056646679695 1.89374978897546 2.12871249099984 2.05102384124468 2.03444671229682 2.21964006106505 2.65212462595169 2.39195492663512 2.60025005349956 2.80296883632839 2.58037263731586 2.26307444720033 2.39758808900872 2.61136466263182 2.60599706259845 2.93913270052318 3.28603831592259 3.38809954959307 3.2795326537314 3.45465460325881 3.44568321724388 3.67544892428408 3.90489217562844 4.15425083207433 4.20233198902976 4.14607598304487 4.26609893819354 4.61583070702681 4.10512640521337 3.66074953863269 4.19548489168735 3.35665233242173 3.46502944873303 2.49223317925436 2.29674075279824 2.15684044147996 2.06663361810858 2.94510723803391 3.2836864088171 3.07264106134387 2.68004404998065 2.43009745801807 3.60678859891002 4.26632643659834 4.61913091174327 3.8613251733618 3.3465049853523 2.58953367535122 2.20459930027654 1.65550587669354 1.8001668580696 1.97310758055832 2.05153595646271 0.693843178923566 1.16293398767774 1.40540755411251 1.18760999907206 0.892578962688833 0.465884432313717 0.161414500168586 0.16477677164259 0.14905828582198 0.125084053856475 0.107003421964299 -9999 -9999 -9999 -9999 -9999 -9999 -9999 -9999 -9999 -9999 -9999 -9999 0.115276620018496 -9999 -9999 -9999 -9999 -9999 -9999
1.8869786319599 1.8442271086253 1.80471893416036 1.77634434078131 1.78398806513031 1.82095464296053 1.84929129243232 1.89132207657483 1.9551648610408 1.98334971237828 1.94097752309159 2.06496456630201 2.23439635507556 2.16696886160632 2.35506413159476 2.43673589387762 2.47205238435312 2.36141812318158 2.62866252327001 2.7057252785977 2.45052482080063 2.68139067609843 2.72594400990444 2.58306597957257 2.51093464188531 2.51905246252747 2.57544123467896 2.5310206370325 2.87168615258095 3.03637625825387 3.22486988675618 3.27137687417846 3.05727784485953 3.33815953127365 3.4170620784888 3.64267407545386 3.88607699380214 3.85969396043782 4.61192350481891 3.98620362832934 3.67931812257064 3.38398363338997 4.07364130414887 3.30953836251152 2.47724931932321 2.85218816796805 3.55713299485628 3.27701005905734 1.68293208994225 1.65882509837419 2.0689096674066 2.01519525805644 2.1876238728289 2.46448454781863 3.43733773315818 3.63135078233345 4.18493933613928 4.17917340759909 2.46894177914477 2.12112573502404 2.00317020519933 1.73254964506408 2.22866834793734 2.42558333333633 1.36718914991857 1.07172188144322 0.499128390641446 1.01510552274125 0.629336545807955 0.260018596032882 -9999 -9999 -9999 -9999 -9999 0.101080610033544 0.115788725859318 -9999 -9999 -9999 -9999 -9999 -9999 -9999 -9999 -9999 -9999 -9999 -9999 -9999 -9999 -9999 -9999 -9999 -9999 -9999
1.99740425415385 1.94755908810081 1.87918319199595 1.8487981341644 1.83935257683871 1.88015051407288 1.98577749229476 2.07486528547603 2.06963042160221 2.0613608103275 2.00774121573491 2.27699620030403 2.42042433477174 2.53519337157359 2.67661101908351 2.77009912022828 2.73692597289829 2.66172192889937 2.62809352969991 2.54786327580827 2.55129629170188 2.75558942410613 2.8152594365222 2.73732421138397 2.89915030973691 2.78576585796363 2.77514436959047 2.54259049803423 2.77872911610255 3.06987189128674 3.04436135774001 3.1271710621525 3.02308043708645 3.02554610089609 3.36359422201643 3.52450984663748 3.7833519292987 4.08447137148551 3.75088052670188 3.80971604322171 4.00549299646994 4.35137438143329 3.55593815937104 2.76014143268104 3.27281836756615 3.51202961692851 3.48572242636815 2.07695167525186 1.54141963517652 1.67303133325942 1.89477404191679 2.34986725663876 2.98416017563291 3.59994147906233 3.66262731943798 3.10833688586728 2.87326044964403 2.32035462360718 1.96153774956363 1.55807260692833 1.61516316132179 2.12188438811634 2.16537561509489 1.41128733312888 0.808043239034277 0.324366843530285 0.466125882118576 0.265565667259258 0.169637434548485 0.268814139831697 0.221938064829343 0.353803561553468 0.32508759303729 0.295138767297846 0.202357528024989 0.164528688405546 0.138540350820274 -9999 -9999 -9999 -9999 -9999 -9999 -9999 -9999 -9999 -9999 -9999 -9999 -9999 -9999 -9999 -9999 -9999 -9999 -9999
2.01185706442216 2.00373921377295 1.99730942439276 1.99782154711254 2.00961895903139 2.14906407099254 2.32327552428277 2.33302454284538 2.26079841290583 2.17650924119135 2.16072873174832 2.33421948335528 2.50653427390773 2.86628056362975 3.14353963464215 2.89177214772814 2.80865901208577 2.55032899963201 2.49727843611832 2.73544649059277 2.56136779596737 2.60415727071099 2.7146966496091 2.79909960803479 2.89653284029119 2.76829725724454 2.63323352630383 2.7091203805911 2.53316390516041 2.68582892796918 2.8864045026842 2.9015970841123 2.65174532191083 2.98228245484171 3.02645655962446 3.28573483968215 3.88825811581617 3.87225009296482 4.0479409460412 4.22368878249431 4.22865820405609 3.25350995995608 3.17441776822225 3.6881568324401 3.1428188504395 3.15852347206802 2.70166636077486 2.16755683463182 1.57906903079684 1.97807691209896 2.38766834536874 3.03667971949079 3.02509089403719 2.85939557489241 2.41224956075989 1.92606950596439 1.6575732645087 1.60827816133182 1.20672868714585 1.39749836494617 1.6814336956972 1.66297886846341 1.32293922858803 0.800759933042762 0.6532538862933 0.197876203855603 0.242884796095114 0.291155700718432 0.410609599469756 0.40620927087642 0.263943238897445 0.215330927254511 0.160147318637756 0.0899141928019319 -9999 -9999 -9999 -9999 -9999 -9999 -9999 -9999 -9999 -9999 -9999 -9999 -9999 -9999 -9999 -9999 -9999 -9999 -9999 -9999 -9999 -9999
2.09258042406939 2.10306916127947 2.0930546253872 2.09834644263071 2.15283849953209 2.35908518052796 2.49134176749724 2.50624976211916 2.46869518125641 2.31713023168763 2.24435401261575 2.36669091595914 2.47973394758473 3.06607849079356 3.03785565053825 2.9757578582057 2.74119346968462 2.7413452153066 2.50698948076663 2.76129848929777 2.54509413575818 2.47271618517904 2.58490577146004 2.78053093407571 2.77353213612189 2.65288332405456 2.58333149690223 2.64085827119745 2.46871417571532 2.70373375609178 2.62898499396936 2.53126720491382 2.77030777420938 2.86356828692822 3.01551258554843 3.48187216252641 4.19233647760344 4.68090639841521 4.40192130722303 4.32685010440831 3.27044751101232 2.57650339401874 2.45443208302263 2.53610375528435 2.28300866671849 1.96823307877878 1.90429544954819 1.74419536387328 1.53275169539499 2.21969699192946 2.61567018584479 2.3513466189161 2.23014780023581 1.79790980323049 1.64698970503928 1.55674491525537 1.20350427272101 1.20752529164716 1.23836555633762 1.23017185538271 1.08736963409687 0.565417904472239 0.566214516475314 0.458273567553436 0.229095817597489 0.174112123410246 0.124191088297096 0.0705161147669093 0.0714834302797913 -9999 -9999 -9999 -9999 -9999 -9999 -9999 -9999 -9999 -9999 -9999 -9999 -9999 -9999 -9999 -9999 -9999 -9999 -9999 -9999 -9999 -9999 -9999 -9999 -9999 -9999 -9999
2.30597767864811 2.35768160104048 2.29167657649298 2.29586829048946 2.37839351312042 2.49604559671174 2.46806927932718 2.9086527604182 2.75467901038833 2.4452520430266 2.26216398847197 2.30861412754921 2.41938104986269 2.92177793152587 2.83976479410589 2.68017677113667 2.5653508259757 2.56923900371764 2.33615406749504 2.54391817470368 2.57957605531983 2.33486436473989 2.53750736477887 2.75906035389996 2.83413158672172 2.73762764261385 2.50359439377675 2.75124597949119 2.74783191304592 2.49293500650691 2.42309866756601 2.64364643571349 2.89000822865166 2.72057642487459 3.1222017606189 3.6479468532279 4.32851918622193 4.63673220361133 5.19589705644221 3.31564575620998 3.02442712321832 2.66414972381937 2.57316523789327 2.65092973795413 2.48415330251946 2.23028053639536 1.87777965001728 1.5858592047766 1.57400483948806 1.98003052820644 1.57170986324698 1.43998433344231 1.33376937469317 1.13019700773717 1.21245670553671 1.5690734668582 1.56463517747864 1.38680099250939 1.27832894516322 1.04528195284787 0.824392749549171 0.717627742927397 0.41284770017192 0.31285390307804 0.302527152331456 0.211377073470243 -9999 -9999 -9999 -9999 -9999 -9999 -9999 -9999 -9999 -9999 -9999 -9999 -9999 -9999 -9999 -9999 -9999 -9999 -9999 -9999 -9999 -9999 -9999 -9999 -9999 -9999 -9999 -9999 -9999 -9999
2.54609937173532 2.53995406413665 2.46222752298657 2.39343428891245 2.3868907428281 2.57297552585874 2.62938324745857 2.77222343890784 2.83056574464742 2.48921747882472 2.33035022505463 2.24683871589488 2.31711125223224 2.72372491397611 2.73633792485518 2.56041943834231 2.56087466020473 2.36312513389893 2.21307753552531 2.19467960164713 2.32657581902036 2.59143041310662 2.52931361131163 2.70519419892781 2.7771358920964 2.58003126217873 2.48011334164672 2.80835546082772 2.81702338560572 2.70931007012034 2.47685100581991 2.50829822299125 2.73832944736111 3.21874352860585 3.61314243295985 4.88929630252843 4.26001058396457 5.4144533320908 4.40497506408634 3.49440933060154 3.29764609082453 3.45429423366276 2.56472489403943 2.74860953059009 3.15027283274694 2.19166381869811 1.60721602074644 1.3721395245091 1.18449941636899 1.1740865519699 1.28360176794782 1.49707488033401 1.42615741009971 1.46160664423652 1.34566162762576 1.09793422536354 0.808100124888117 0.780332502744354 0.979238988143989 0.79706136606156 0.563862613120705 0.370760029237844 0.368180512138864 0.48973975105208 0.440710161453981 0.302896250226448 -9999 -9999 -9999 -9999 -9999 -9999 -9999 -9999 -9999 -9999 -9999 -9999 -9999 -9999 -9999 -9999 -9999 -9999 -9999 -9999 -9999 -9999 -9999 -9999 -9999 -9999 -9999 -9999 -9999 -9999
2.80211534597324 2.67120543013231 2.50772922942115 2.36610294293365 2.23735521466193 2.51505046806728 2.77224241836323 2.58458331576421 2.78009464665811 2.41113047805746 2.30840544356106 2.1327334499119 2.1697949550261 2.64719325332183 2.67412636081495 2.34776193241811 2.25935691951814 2.10655907803045 2.17996117652627 2.35485553762775 2.23872080523159 2.33746285473022 2.62932641411706 2.78591758858208 2.70295609353705 2.46201885400194 2.79987724058247 2.99172804217444 2.88577866076906 2.73523786661871 2.53820915452261 2.72059535931941 2.92889051619089 4.31325079199692 5.46050520267532 5.01381434288936 5.22857709801661 5.16133930908013 3.19691257883406 3.33829229744024 3.35196743765205 3.13511821773138 2.63313871904802 2.72626648810555 1.73573610057814 2.17152093019532 2.11829965660779 1.66675328199944 1.46987626301299 1.16124591140521 1.13861834587946 1.05448090853432 0.970665926885004 1.18396832544646 1.66669638114208 1.36789092465878 1.01819713724157 0.822021881742695 0.739098341857554 0.566821454890393 0.286319127842623 0.262686296332692 0.395132557827685 0.451616167242028 0.340962935992298 0.172850062769035 -9999 -9999 -9999 -9999 -9999 -9999 -9999 -9999 -9999 -9999 -9999 -9999 -9999 -9999 -9999 -9999 -9999 -9999 -9999 -9999 -9999 -9999 -9999 -9999 -9999 -9999 -9999 -9999 -9999 -9999
2.65292123795477 2.73121692271017 2.55673988457442 2.46101355801072 2.24183144044698 2.18576509398428 2.39861233444829 2.53999202304743 2.78223801981067 2.47328517874914 2.27500464779106 1.99622827809583 1.88341283489617 2.23012879827514 2.29537515472682 2.37357594220528 2.38195934019119 2.1408134241697 2.07431524885604 2.32570330419925 2.25400820891903 2.33105204480541 2.69269498976346 2.84113036967202 2.71149122214142 2.50507381606817 2.90030726132898 3.02791692744288 2.91555675111621 2.72848560653916 2.56986496566096 2.83646454437886 4.26166071632984 4.68684300702221 4.92762859095647 5.38425796378848 5.55784352265126 4.47215601968131 3.92518689977435 3.34172531333385 3.26170368341627 2.48589824964231 2.67262792155933 1.68801522319762 2.15168150292945 3.3023688844909 1.74584549623855 1.39804839406441 1.39571545141079 1.40743702802746 1.69319322372288 1.23965532660861 1.34526336288391 1.45794603241522 1.43285274681661 1.0755152725592 0.968067451898198 0.721003857963649 0.338667932557332 0.22304535663888 0.297263061596684 0.287627844748799 0.378631311068011 0.472555690253176 0.280401435863766 0.0977183366840999 -9999 -9999 -9999 -9999 -9999 -9999 -9999 -9999 -9999 -9999 -9999 -9999 -9999 -9999 -9999 -9999 -9999 -9999 -9999 -9999 -9999 -9999 -9999 -9999 -9999 -9999 -9999 -9999 -9999 -9999
2.47497324001815 2.71204123625613 2.40496625101749 2.27174236447658 2.05106183016251 2.17019326102764 2.33795599049286 2.57145821967415 2.64468960059436 2.43857568576508 2.20932210894643 1.91431000044398 1.83601439070619 2.30172910880483 2.24552997367026 2.29070931443014 2.38996338912567 2.25827573571241 2.2658815461612 2.25634115157265 2.28921085266924 2.40955626351375 2.62695551255266 2.63877192643219 2.6063384527391 2.74047274549606 2.99629907521531 3.16639475483591 2.99576802555246 2.85584876478584 2.58543685112993 4.17249705033757 4.58726649163438 4.71451575814519 5.73692964275978 5.72004906007676 5.33651812195609 3.23126174723264 3.32262557470841 2.71501907529789 2.17097084856476 1.85890752232305 1.88377318198692 1.46488793701344 2.05246537214118 2.5629419880058 1.26461583853887 1.5134054338988 1.89653796849503 1.96123425081791 1.87444147138653 1.40182279259692 0.960272045692182 1.0353432672613 1.09345801833289 0.760758600309905 0.505008150903408 0.224297175500854 0.294323183341143 0.388987265232539 0.447424470124513 0.315566178841851 0.307050011876188 0.396574054966255 0.273933701638592 -9999 -9999 -9999 -9999 -9999 -9999 -9999 -9999 -9999 -9999 -9999 -9999 -9999 -9999 -9999 -9999 -9999 -9999 -9999 -9999 -9999 -9999 -9999 -9999 -9999 -9999 -9999 -9999 -9999 -9999 -9999
2.37217239272485 2.40885447377001 2.2468197739483 2.02242165193795 2.08912841371686 2.20196287388072 2.34766705014469 2.54168006931291 2.51152261491081 2.35574695688664 2.09654456464346 1.82273754149239 1.88113680810343 2.34764805568578 2.39510340073311 2.2045803508282 2.25171324017971 2.19141723581327 2.25893961155593 2.08332459378174 2.06885280405805 2.14980375963297 2.31280582654217 2.27379076533458 2.33736803247089 2.60436583467096 2.94286919265724 3.0909631524181 3.02421843923017 2.83828534180742 3.47807879204027 4.36357012936073 5.00104957138478 5.7568259933883 6.09219969169323 5.43649296585075 4.29058530131831 2.16674121316631 2.3232755767951 2.27149575158469 2.13411807244927 1.85959031760788 1.26378130513382 1.25456332123053 2.43573062789344 1.93414943521162 1.18793242476085 1.51090178117133 1.89314288900691 1.51312092211022 1.35302082143179 1.184233846527 0.834483177006836 0.555901610228698 0.416660054802045 0.301834096512988 0.165859976235201 0.188923799171508 0.383961025332775 0.396403350518728 0.380471108581797 0.297775167437506 0.234425533737694 0.187634047654919 0.112407486182566 -9999 -9999 -9999 -9999 -9999 -9999 -9999 -9999 -9999 -9999 -9999 -9999 -9999 -9999 -9999 -9999 -9999 -9999 -9999 -9999 -9999 -9999 -9999 -9999 -9999 -9999 -9999 -9999 -9999 -9999 -9999
2.26743683376185 2.11913422752164 1.74508679813569 1.81249537966539 1.96112048661199 2.17510566920563 2.38575268067028 2.59380126966045 2.53843672794501 2.33772834205284 2.18548059719923 1.94057923209358 1.91821720265189 2.25692916960871 2.35862997366906 2.26332106009222 2.13652685040508 2.05373615545502 2.08364699696524 2.05394477942908 1.98253413592334 1.84894986478286 2.14331703938836 2.19462270078977 2.34732562999699 2.52455293375209 2.8969501482534 2.96874009580001 2.79316287939961 3.08470405810823 3.85485732004617 4.54345274144415 5.5645579438482 6.04436504260502 5.98670557716083 4.45243037912664 2.53868331082985 2.39498959901839 2.61426663636435 2.88619585620485 2.50613601291676 1.75439959679655 1.26526071992348 1.31863372412947 1.5946788151625 1.09294589186222 1.34363217246522 1.71974692965224 1.39294625884837 1.34073024374326 0.958716743088007 0.567049063008443 0.230651108011303 0.14682739524988 0.232509867163797 0.269305763051765 0.158069678728442 0.141099374983579 0.267959109740093 0.301720293860543 0.316305885298962 0.24751272999334 0.243927977854945 0.136618051751913 -9999 -9999 -9999 -9999 -9999 -9999 -9999 -9999 -9999 -9999 -9999 -9999 -9999 -9999 -9999 -9999 -9999 -9999 -9999 -9999 -9999 -9999 -9999 -9999 -9999 -9999 -9999 -9999 -9999 -9999 -9999 -9999
2.06521108917276 1.64296870111665 1.92997673817933 1.8155869754113 1.9388153130171 2.19242248679393 2.38814256169007 2.56713370950404 2.52650648234372 2.26550212209216 2.35715051386883 2.21465176507255 1.8208977346014 1.97297480688997 2.14572586235474 2.09373737566146 2.02452699866388 2.04626314117987 1.98230656250093 1.86002658252019 1.7964303734373 2.02141640845905 2.32327555428982 2.35409689953897 2.47759070946386 2.61646676033906 2.90112289779801 2.85087940323815 2.90918385509161 3.24706120612402 3.8055243742358 5.06362162504924 5.75866572526167 6.74919615029789 6.72979287541792 4.07144109765479 2.91411521271796 3.74928725768517 3.26117263375343 2.88452681190004 2.09804291387795 1.59869978907809 1.36669599915241 1.59337009544317 1.07274609875119 1.03566567794657 1.403207392629 1.34668585431093 1.17622980509429 0.841823378229392 0.278789238966269 0.113038517440892 0.102920404734171 0.240457020867235 0.257015178799193 0.285731152003971 0.20582335755904 0.0922558525018631 0.0668554926306841 0.166523823009404 0.194594920455887 0.18513040711781 0.0842948514852965 -9999 -9999 -9999 -9999 -9999 -9999 -9999 -9999 -9999 -9999 -9999 -9999 -9999 -9999 -9999 -9999 -9999 -9999 -9999 -9999 -9999 -9999 -9999 -9999 -9999 -9999 -9999 -9999 -9999 -9999 -9999 -9999 -9999
1.67094496598888 1.80562935537992 1.88356455801286 1.6480708138274 1.91381686468135 2.13868912799542 2.31559393104412 2.47393006013376 2.41249611363768 2.23050814732657 2.38408362136195 1.9760474606893 1.82051840805525 2.02915495506739 1.94471405273445 1.94708491679005 1.88781316536494 1.8977328940014 1.86565975989732 1.88625788526605 2.1646359189527 2.01898866605138 2.26535046649131 2.35246571662205 2.51914731479385 2.56009698264648 2.95648739450288 2.95074043041456 3.36687550729159 4.01013985731122 4.66377921784383 5.33511461748622 6.57538289798454 8.08386314070455 5.93236519086383 3.35409175633161 3.47787007804508 4.32197567014461 3.70949461644222 2.8431029427296 1.90435235790731 1.54758388472177 1.89285839222186 1.34803251793752 1.04767177760445 0.796644084355514 0.957218345092074 1.033313804599 0.830765641822887 0.522780188478685 0.311734854133538 0.10616887543117 0.0881451453340769 0.217317334497138 0.279377220431242 0.277821926266547 0.25265277629643 0.124641175204097 -9999 -9999 0.101422014239999 0.110136572777686 -9999 -9999 -9999 -9999 -9999 -9999 -9999 -9999 -9999 -9999 -9999 -9999 -9999 -9999 -9999 -9999 -9999 -9999 -9999 -9999 -9999 -9999 -9999 -9999 -9999 -9999 -9999 -9999 -9999 -9999 -9999 -9999 -9999 -9999
1.83455396287368 1.76646259356091 2.09500821898939 1.78247070643339 1.83620405773014 2.17330381372366 2.25101148794477 2.37843144202415 2.20238018934469 2.02333205815399 2.26753169352999 1.92176401275847 1.99317462625716 1.92502635608704 1.91926040504156 1.83233481443302 1.80718463547881 1.71417065313248 1.79191623375204 1.83595750485235 2.13392841292708 2.18806010773417 2.25087865426233 2.38211108581317 2.46882800743709 2.54425959485137 2.78538647890515 3.23636388995044 3.98916244290515 5.13491842182969 5.33276272538426 6.60396619785701 7.14625040799077 7.3843996630521 4.4820757033072 3.80546743586964 4.86564448031046 4.54005769946483 3.44699194446498 2.41659300537483 1.97845628365568 2.54757877152146 1.68456325035389 1.47082463564157 0.959987530152728 0.911375214758914 0.910028558634082 0.623532674298226 0.471967707850482 0.419011964720694 0.311033074704721 0.0952146998978716 0.104105080959545 0.228716474172379 0.238199953837763 0.253563189076509 0.258229064068832 0.190213552563537 -9999 -9999 0.0713316940350113 -9999 -9999 -9999 -9999 -9999 -9999 -9999 -9999 -9999 -9999 -9999 -9999 -9999 -9999 -9999 -9999 -9999 -9999 -9999 -9999 -9999 -9999 -9999 -9999 -9999 -9999 -9999 -9999 -9999 -9999 -9999 -9999 -9999 -9999 -9999
1.69717627623649 1.80456717353485 2.09423055643466 1.82264270422953 1.876565730052 1.93614095021578 1.96121528636604 2.00389097439846 2.04759082535107 2.05094798343722 2.46249305531975 2.00996037917909 1.75077689887546 1.86550803678062 2.05982451718576 1.90366954761896 1.77055940277868 1.86607703035072 1.89130309711944 2.05794678139104 2.13726659155784 2.34888095510645 2.45054384526659 2.59617214121781 2.71416553993217 2.91087188635358 2.86483905523854 3.87524680643732 5.44267627737076 6.57456730652607 6.34195660162832 7.99096301258528 8.52850547960433 6.42216795108218 4.94251753110539 5.44117781560986 4.49000387943069 3.18875681428464 3.165275687137 2.71209819712758 3.87769358081271 1.75832575595456 1.43968086470363 1.33511601581448 0.781375690130507 0.779061726932274 0.723317832414524 0.348701448842713 0.603560452734158 0.415863451238451 0.302497942349471 -9999 0.127475977230703 0.190175620846642 0.209085674631448 0.234823838801511 0.231713254223002 0.251078521430749 0.193172399959546 0.0784822385485348 -9999 -9999 -9999 -9999 -9999 -9999 -9999 -9999 -9999 -9999 -9999 -9999 -9999 -9999 -9999 -9999 -9999 -9999 -9999 -9999 -9999 -9999 -9999 -9999 -9999 -9999 -9999 -9999 -9999 -9999 -9999 -9999 -9999 -9999 -9999 -9999
1.94300699700653 1.99721463214047 2.08882498248699 1.86220776454831 1.86886515735796 1.99213141636573 2.10479515895397 2.01847652082631 1.97965120166029 2.14910196238747 2.08192097678546 2.21768648996815 1.85962829902394 1.73554644855771 1.94446747735137 1.94260872101204 1.89699318285569 1.9347753446426 1.92726440896548 2.16471174675313 2.18976709594624 2.33569889064318 2.4446640700011 2.73724836858003 2.82580509709493 3.33772327386309 4.10533499918039 4.8320161411251 6.7928770443004 7.2825659878005 8.59020500344415 8.03354345825974 7.87748354350687 6.52172544200406 5.65413876776746 6.38468915300929 3.65841662598612 2.96248101649366 3.15338346046058 4.37809886495235 2.81235750780024 1.33684202099074 1.03202403432801 0.915661751014727 0.835393586973755 0.834312476310189 0.300587404166953 0.408561173293308 0.547759672362568 0.443024134029415 0.335974620307668 -9999 0.0839344800138143 0.158709436410278 0.188335820519695 0.19872971765376 0.21073580043268 0.245122894921837 0.202143769095508 0.110629714166641 -9999 -9999 -9999 -9999 -9999 -9999 -9999 -9999 -9999 -9999 -9999 -9999 -9999 -9999 -9999 -9999 -9999 -9999 -9999 -9999 -9999 -9999 -9999 -9999 -9999 -9999 -9999 -9999 -9999 -9999 -9999 -9999 -9999 -9999 -9999 -9999
1.74319012789614 2.05504483766555 2.15691635930151 2.04559928784162 1.99533684383342 2.0291170186619 1.9981250008477 2.16694986714741 2.29205594054793 2.65043660969325 2.39531206971774 2.19483128725502 1.86518558858655 1.85348296141823 1.78800905404942 1.82184609972822 1.85932483028526 2.00760847957536 2.01197086613688 1.97767861359919 2.2070839585451 2.44396231026441 2.75824485246263 2.99940963541309 3.80793317469689 4.94069670366979 5.49018850077018 6.32541746910004 7.97804639043406 8.21333141312257 7.73984036204531 7.99631167817383 7.39210016072853 6.43089273920874 6.66919352984274 4.03878000552874 3.20654781068546 3.5360986870946 3.65035563868547 4.18531870019423 1.54974611730154 1.19597440259906 0.889544246232715 0.876665676764289 0.843207961382519 0.533610319580301 0.237498178159827 0.227635360695653 0.33701780488066 0.418613662470038 0.300999553730739 0.144287338351603 0.120539190708941 0.138433759235613 0.140520122755277 0.187653012106786 0.236094621177632 0.255668521736641 0.221395232713089 0.110117604574939 -9999 -9999 -9999 -9999 -9999 -9999 -9999 -9999 -9999 -9999 -9999 -9999 -9999 -9999 -9999 -9999 -9999 -9999 -9999 -9999 -9999 -9999 -9999 -9999 -9999 -9999 -9999 -9999 -9999 -9999 -9999 -9999 -9999 -9999 -9999 -9999
1.81860275085856 1.9502144414397 2.15619559010239 2.23511712427469 2.09918093852696 2.16873273567223 2.20133698695501 2.0400798971757 2.13131100349545 2.51247092752529 2.54405092586675 2.19892818649392 1.9651604324812 2.05121350076688 1.90518692131941 2.04798916135965 2.13728557851499 2.19409157610931 2.30745713094658 2.37446737646769 2.63264561329243 2.89431377436991 3.20834973368328 3.56115405879299 4.20318550939196 5.29365283441557 6.27716548204258 8.06867036423066 8.78078484168002 6.81019383938341 6.71198300458636 6.83443364963038 5.76039173043794 5.7451423006648 5.22493551816302 3.59184257786147 2.93924645722734 4.0351761595331 3.15474906603375 1.53842283918465 1.28908320720472 1.17757647997352 1.0885835053007 1.00956716387258 0.77961175980139 0.494178019801792 0.387469919663701 0.355282983844892 0.105575778702899 0.157516030948233 0.272104151530363 0.194837885616473 -9999 0.111719555942318 0.122544568967476 0.163052867897133 0.235601481664118 0.227825029595047 0.177264240550941 -9999 -9999 -9999 -9999 -9999 -9999 -9999 -9999 -9999 -9999 -9999 -9999 -9999 -9999 -9999 -9999 -9999 -9999 -9999 -9999 -9999 -9999 -9999 -9999 -9999 -9999 -9999 -9999 -9999 -9999 -9999 -9999 -9999 -9999 -9999 -9999 -9999
1.93310627033075 2.09222006947687 2.2352688248861 2.3489947718247 2.29880814061339 2.33340390690034 2.3083864791092 2.13076096687545 2.1633651656459 2.45232672879493 2.54484750786278 2.28482955416818 2.1995161820247 2.07585159451011 1.98120645175214 2.34042168430955 2.46619155853598 2.40263332336739 2.71213608852251 3.01555049944864 3.17458846329258 3.69536420935742 3.83207805765988 4.16453085528922 5.41644495962138 6.58162310286015 7.94288167558758 7.35361624670668 6.17798722014395 6.56481834797755 5.7317706216899 5.58274729876289 4.67265567657476 4.78837317602633 4.76066239097496 3.6785216005887 3.37285005980584 3.22124722634389 1.57846208581772 1.36938933390736 1.42494352764323 1.13086084607189 0.942936241146737 0.841937174317797 0.762825995626821 0.563350511030763 0.560372696369727 0.379371022213723 0.345818470506815 0.336847100433132 0.191679129417272 0.107732890393054 -9999 0.0629482997999814 0.0634793747812712 0.155352284888173 0.186571895816899 0.195979508297614 0.0851862998135086 -9999 -9999 -9999 -9999 -9999 -9999 -9999 -9999 -9999 -9999 -9999 -9999 -9999 -9999 -9999 -9999 -9999 -9999 -9999 -9999 -9999 -9999 -9999 -9999 -9999 -9999 -9999 -9999 -9999 -9999 -9999 -9999 -9999 -9999 -9999 -9999 -9999
2.02014561764345 2.00203218805208 2.29901682460154 2.25275644256938 2.16143049898678 2.103733037123 2.0887680666261 2.47884254332936 2.70473903707948 2.44022581813035 2.37674338075515 2.50998623924969 2.31563184494434 2.16383929194611 2.1715209151918 2.37689514138065 2.87460705325654 2.76626782083841 3.17126930912778 3.61058194689087 4.23592250433605 4.76377293616922 4.86171832865421 4.70563923940017 6.43741735084828 6.46844721504684 6.04316998206695 5.31732365109245 5.85795780387854 5.64171549142818 5.41280333475723 4.33362132893973 4.73689684205988 3.73657942454675 4.27725152124011 5.61150106865286 3.93613078382924 2.36160777520201 1.57282888593532 1.18501150908173 1.0641161253822 1.09444427860551 0.943087971765196 0.837878263996717 0.702814544308647 0.542448926300551 0.488279291337083 0.48188743273606 0.334931437610116 0.273857834453922 0.355169186818767 0.236275568342117 -9999 -9999 -9999 0.0975994131420363 0.193760375798198 0.145375664771554 -9999 -9999 -9999 -9999 -9999 -9999 -9999 -9999 -9999 -9999 -9999 -9999 -9999 -9999 -9999 -9999 -9999 -9999 -9999 -9999 -9999 -9999 -9999 -9999 -9999 -9999 -9999 -9999 -9999 -9999 -9999 -9999 -9999 -9999 -9999 -9999 -9999 -9999
2.10872133311551 2.15907861438657 2.08065022347866 2.12943324519544 2.22221960160704 1.95996346750407 2.32194784011157 2.64958305932401 2.6416928421113 2.64190145108184 2.70443557584256 2.55698637743813 2.51480388518244 2.20522517219872 2.50547214457499 2.50738779426993 2.79771503800974 3.48310504694356 3.5956170289063 4.30560717267257 5.00404631486432 5.14527442288022 5.55069305409306 6.04000267854878 5.46941960531351 5.673466214847 4.81691841196337 5.36176318318373 5.79164934810117 4.47037310614592 4.54980674803449 3.78420549467146 4.04943936279154 2.83102101152041 4.90244036307035 3.75076673248892 2.24729393025554 1.67777309137765 1.19117578863403 1.03524841124404 0.911280377496057 0.832719239175958 0.806829356577798 0.807208683123946 0.71449818451982 0.525852838527139 0.430012798394397 0.389309702173966 0.404047031732605 0.343371733640229 0.219232998257875 0.279396184883109 -9999 -9999 -9999 0.169160229713105 0.143020158696214 -9999 -9999 -9999 -9999 -9999 -9999 -9999 -9999 -9999 -9999 -9999 -9999 -9999 -9999 -9999 -9999 -9999 -9999 -9999 -9999 -9999 -9999 -9999 -9999 -9999 -9999 -9999 -9999 -9999 -9999 -9999 -9999 -9999 -9999 -9999 -9999 -9999 -9999 -9999
2.5475598445784 2.38543028498854 2.29112657738179 2.42076570990887 2.56855623843986 2.65288333905808 2.554217207381 2.36900486415385 2.2978598279989 2.45103695102218 2.68852227022589 2.88452681190004 2.76385896036323 2.41723781174183 2.50782403667696 2.94040343882646 3.17927328304465 3.35966807036018 3.56320242964395 3.82682418432362 4.25726036335578 4.81875808382266 5.96895241964261 6.30480019923717 4.99306456191978 4.49203337585091 5.22277337560438 6.03708170285558 5.84435846146011 4.86118727899137 3.47238869130051 3.36393558215004 3.7173848786655 3.44752299412783 2.54659248499267 2.0630299146464 1.59983785873766 1.55996932217844 1.26160010060042 1.21372750010319 0.934268338874014 0.836133301870348 0.833402060716949 0.744181490116442 0.700026406048767 0.503471825879181 0.462237659366061 0.339730081582191 0.268641921903883 0.291819544679474 0.289202105240801 0.191313637993892 -9999 -9999 0.11017962725964 0.176064202594431 -9999 -9999 -9999 -9999 -9999 -9999 -9999 -9999 -9999 -9999 -9999 -9999 -9999 -9999 -9999 -9999 -9999 -9999 -9999 -9999 -9999 -9999 -9999 -9999 -9999 -9999 -9999 -9999 -9999 -9999 -9999 -9999 -9999 -9999 -9999 -9999 -9999 -9999 -9999 -9999
2.58685938006575 2.66339104072003 2.75727748537514 2.71130156261922 2.9987836884733 3.09538243983699 2.95927554401541 2.50683773514465 2.66976390673758 2.61417174658917 2.8400113619872 3.09092522351437 3.23097725044759 3.01964740618931 3.00841896533527 3.0995551893816 3.61486851315373 3.85047597653454 4.0651060405128 4.21509680554491 4.52826025003717 5.47888412709107 6.26166939436699 5.77444618969414 5.19223655714732 4.95404943319634 6.99669605040444 6.16133427089743 5.37441418298063 4.4206796407043 3.38722703477196 3.38900994830735 3.67171247716059 2.50668600452619 2.08670068631271 1.82271859204404 1.74254523900977 1.76727814000881 1.39507055502265 1.12839512974992 1.00524270246392 0.916116954122746 0.794064588824097 0.77629254937338 0.697693463395145 0.422008738207277 0.341911283302433 0.333262343606137 0.288595165888002 0.277537422917455 0.300449511484422 0.200854013828038 0.0835843493838492 -9999 0.165499605701439 0.0879313873423158 -9999 -9999 -9999 -9999 -9999 -9999 -9999 -9999 -9999 -9999 -9999 -9999 -9999 -9999 -9999 -9999 -9999 -9999 -9999 -9999 -9999 -9999 -9999 -9999 -9999 -9999 -9999 -9999 -9999 -9999 -9999 -9999 -9999 -9999 -9999 -9999 -9999 -9999 -9999 -9999
2.37112918283341 2.7090824066768 2.64495511792402 2.65751129546159 2.764996992514 2.79885308516404 2.83411262226985 2.67414526525273 2.98994511363554 3.00506176223856 3.03174831685388 3.37064991332585 3.59366343530411 3.94686614893473 4.12557278496012 4.03766092282631 4.10292625873339 4.39738826309999 5.09872941653307 5.53936974596913 5.25287389164031 6.36467895565548 6.40208183590682 6.10443341353496 6.09809847642114 5.37915592609534 4.83656810468944 5.00700526447182 4.48727259326672 3.92990964843015 2.82730348383822 2.61415279714082 2.22730274236416 1.98687755803299 1.9604945396722 1.94805222386345 1.67538324786667 1.61034553039257 1.39738453322441 1.12892621317069 1.17065352857453 1.00765149542325 0.81874059646754 0.710230635221157 0.676412542741583 0.414877170335982 0.351318890156827 0.262174187678709 0.23195982397976 0.254909844263621 0.24079843070001 0.111184875427137 -9999 -9999 0.153265919493069 -9999 -9999 -9999 -9999 -9999 -9999 -9999 -9999 -9999 -9999 -9999 -9999 -9999 -9999 -9999 -9999 -9999 -9999 -9999 -9999 -9999 -9999 -9999 -9999 -9999 -9999 -9999 -9999 -9999 -9999 -9999 -9999 -9999 -9999 -9999 -9999 -9999 -9999 -9999 -9999 -9999
2.47182475091663 2.40822854183374 2.44303293209474 2.61138365709073 2.74382990358221 2.89169631992771 2.97241966457142 2.93061652136716 3.26481431863167 3.49088147744507 3.83712333702912 3.90669408362274 3.97880644185461 5.18366346963217 4.91516717566415 4.81257489233083 4.93553772761048 5.13343901454179 5.51300570706372 5.77327018362907 6.40416816566855 7.27700865322733 6.99110078692753 6.42541123243599 5.87013457235059 5.07268780331645 4.71806257575353 5.09833116304386 5.45343047189642 5.0046343479039 2.95563391915125 2.35155528790072 2.15585422246702 1.87705888081815 1.73657066399023 1.49603167794433 1.37737439588469 1.30715872289588 1.30535687491567 1.34920845648674 1.30236008642557 1.02610634891319 0.946995170222219 0.825644560909384 0.656724846094171 0.459752993595741 0.411633823341762 0.392344427069566 0.363837082527449 0.309060512899782 0.138942260480263 0.178586807583407 -9999 -9999 -9999 -9999 -9999 -9999 -9999 -9999 -9999 -9999 -9999 -9999 -9999 -9999 -9999 -9999 -9999 -9999 -9999 -9999 -9999 -9999 -9999 -9999 -9999 -9999 -9999 -9999 -9999 -9999 -9999 -9999 -9999 -9999 -9999 -9999 -9999 -9999 -9999 -9999 -9999 -9999 -9999 -9999
2.18409601217067 2.4281249224693 2.41391864257351 2.63251284712584 2.73409986447499 2.92397806300233 2.84450649221003 3.21470360524192 4.10922326694347 4.43746538612446 4.64629163766936 5.46922999080188 6.22405799516625 5.35457472570771 6.46960416663891 5.15515622261295 4.86545476077418 5.45805839829288 6.13423055835511 6.29203556276429 5.67763884436344 6.3896585295605 6.10972518576791 5.82772447666545 5.21004654800705 5.36555661368395 6.09642927457935 6.06839618386737 5.46228805619662 3.5539276424062 2.90009865235844 2.3616456365899 2.09045612789511 2.02359762799598 1.59319940037284 1.3973276398688 1.30662765072775 1.13241614117431 1.22431105207085 1.23440147952852 1.15238833835765 1.05835018183849 0.928976547886664 0.754935755908828 0.610521340538649 0.389290739597539 0.343447601762619 0.383373048556402 0.339274869096971 0.323266761850811 0.221433165367704 0.129965769516963 0.136281764684196 0.114542027886962 -9999 -9999 -9999 -9999 -9999 -9999 -9999 -9999 -9999 -9999 -9999 -9999 -9999 -9999 -9999 -9999 -9999 -9999 -9999 -9999 -9999 -9999 -9999 -9999 -9999 -9999 -9999 -9999 -9999 -9999 -9999 -9999 -9999 -9999 -9999 -9999 -9999 -9999 -9999 -9999 -9999 -9999
2.76065362291667 2.73740009919849 2.70030071019112 2.93177350296627 2.86732375851766 2.82193579378372 3.17187620159457 3.63106621053079 3.83727503764054 4.82169808398182 4.40021441653385 4.44057599133281 4.56128172676279 4.92436618011205 4.14981252018949 4.64699338240253 4.80568989609173 5.10102447529353 4.90164372106023 5.21334675272351 6.69117618022596 7.47697727546146 7.10679924690961 6.46890242190574 5.79236996726508 6.13508398869618 6.16078424177919 6.78737663308986 3.98131007957856 2.7984357621983 2.40729917866759 2.40872172260694 2.02551328519267 1.7874589649171 1.56325057744655 1.30537583186578 1.11997379910939 1.04752003198247 1.08638332881367 1.10982648204701 0.971196999053134 0.920896641144715 0.76927477946593 0.734603166624159 0.569135422777226 0.418082584675587 0.357559021890271 0.308889804701374 0.291971279048814 0.332427798010727 0.258191127663337 0.209768485857518 0.181678422083727 0.173162257931225 0.0720524388534159 -9999 -9999 -9999 -9999 -9999 -9999 -9999 -9999 -9999 -9999 -9999 -9999 -9999 -9999 -9999 -9999 -9999 -9999 -9999 -9999 -9999 -9999 -9999 -9999 -9999 -9999 -9999 -9999 -9999 -9999 -9999 -9999 -9999 -9999 -9999 -9999 -9999 -9999 -9999 -9999 -9999
3.31689756006843 3.33499206271674 3.14649837420035 3.50121849904021 3.75446527321396 3.31075229748033 4.32817779608127 4.11656348504499 3.74079013300214 3.78699362918046 3.79901860701996 3.75357386895859 3.80131366578041 3.69329684404755 3.54000584429194 3.89630019867904 4.30132062141324 4.42185561676232 6.13859286239726 7.0570678825713 8.71464715599057 7.1543873281165 6.67552837693543 6.28968361064823 5.84593275102144 4.62722982794765 3.67520237140628 3.70050428097895 2.98967962631292 2.41600500234229 2.19357948339657 1.83931464043321 1.66318748493571 1.41525140993798 1.29196618647834 1.21917098795108 1.14777938391482 1.12930556222212 0.978044070139377 0.910445832838367 0.801480668483965 0.789493552032352 0.800399552194079 0.740786406877442 0.493343473268663 0.346387480018159 0.322982251937678 0.296295747021522 0.240532890865065 0.309876086541563 0.287741645525804 0.237744745103424 0.191598140405264 0.158254227675938 0.107267442692637 -9999 -9999 -9999 -9999 -9999 -9999 -9999 -9999 -9999 -9999 -9999 -9999 -9999 -9999 -9999 -9999 -9999 -9999 -9999 -9999 -9999 -9999 -9999 -9999 -9999 -9999 -9999 -9999 -9999 -9999 -9999 -9999 -9999 -9999 -9999 -9999 -9999 -9999 -9999 -9999 -9999
3.77157351934052 3.53674359848626 3.40991159492709 3.88378199505578 4.372200125235 3.59013553713707 3.35246058841821 3.23306361021637 3.36624962036588 3.47735806785171 3.57348252787645 3.4602498517322 3.22794250304671 3.64438102615713 3.89956245948824 3.70412697139828 4.02250633031603 5.91603469731313 6.59450161606537 7.64470203851414 8.20032023877541 7.10850619761288 6.8146890146168 5.61161493038168 4.151652342084 2.91629646976368 2.73013576891148 2.77013707913905 2.54029548428435 2.06862515561803 1.79003849795732 1.75885682812269 1.66254261105286 1.48927944787183 1.36601319636582 1.40540755411251 1.46756226980771 1.36992037606844 1.18523911251118 1.04549057682193 1.01375884411114 0.907069706549473 0.798370089531777 0.6527986794344 0.394411818635601 0.399039752533828 0.347525499040849 0.281425654109451 0.238617228042048 0.236360162888018 0.262477658292829 0.207947656546479 0.18181119012576 0.162711461815238 0.116347494529146 -9999 -9999 -9999 -9999 -9999 -9999 -9999 -9999 -9999 -9999 -9999 -9999 -9999 -9999 -9999 -9999 -9999 -9999 -9999 -9999 -9999 -9999 -9999 -9999 -9999 -9999 -9999 -9999 -9999 -9999 -9999 -9999 -9999 -9999 -9999 -9999 -9999 -9999 -9999 -9999 -9999
3.95035598316634 3.57554999821098 3.91162548625965 4.65913226698141 4.65323354226758 2.75843446697425 2.86307515116559 3.15461628486364 3.16755173643502 2.99442136942763 3.04942555655055 2.92128472074563 3.05428105636942 3.6662499348397 3.7829915897097 4.70063187393114 5.4482335219228 7.01748382029185 7.56828420958163 8.18448267093804 7.437108746404 5.94008466799564 3.71347769146112 2.97350083337363 2.79312501050997 2.51867317349013 2.37319660815737 2.30480173259712 2.15073315280616 1.96113940605329 2.09603244192368 1.9571943049487 1.81133841306979 1.6975935466899 1.65440575844298 1.61730640694442 1.43528051923133 1.24348665600552 1.08869730326455 1.04685620490039 0.954562984251427 0.769464446489885 0.671272497376214 0.50967401933169 0.366302791347663 0.288841733769319 0.318430184286401 0.307467286080473 0.27342159673549 0.24003974947611 0.223841970517395 0.183764789354271 0.169311965020165 0.14532388292837 0.141264956666047 -9999 -9999 -9999 -9999 -9999 -9999 -9999 -9999 -9999 -9999 -9999 -9999 -9999 -9999 -9999 -9999 -9999 -9999 -9999 -9999 -9999 -9999 -9999 -9999 -9999 -9999 -9999 -9999 -9999 -9999 -9999 -9999 -9999 -9999 -9999 -9999 -9999 -9999 -9999 -9999 -9999
4.07134620037785 3.68309261862604 3.35418662360152 4.13395610792842 3.07427218424671 2.46186710837996 2.73019264726356 2.48551887058383 2.68599969805712 3.00151501964783 2.72416114137962 2.97078854166858 3.31219374585745 4.71297950251226 6.38903265763831 6.47408043743453 7.40672373358301 9.17958400898694 8.94890806827121 6.73108263818715 5.17015908450477 3.56777350769538 3.24618872130995 3.46641401875808 2.79494586795261 2.34284946422603 2.03989024515527 1.99131586241607 2.11932383453151 2.23788633934239 2.13119717927544 1.92857315869186 1.69694868781057 1.51784367076602 1.62521564112132 1.53749344601146 1.14089439517748 0.86579762801158 1.05330495498157 0.93445801339973 0.788924543458728 0.745509170536765 0.581293253053568 0.404653980462606 0.339274878474172 0.349175627655241 0.26088443428668 0.292862728314746 0.284460366814689 0.218682958824718 0.189682474769087 0.135229859314014 0.0763769049506834 -9999 -9999 0.0971493290481954 -9999 -9999 -9999 -9999 -9999 -9999 -9999 -9999 -9999 -9999 -9999 -9999 -9999 -9999 -9999 -9999 -9999 -9999 -9999 -9999 -9999 -9999 -9999 -9999 -9999 -9999 -9999 -9999 -9999 -9999 -9999 -9999 -9999 -9999 -9999 -9999 -9999 -9999 -9999 -9999
4.4084270294283 3.90559396537218 2.51577117725232 2.22790971735033 2.34417711088843 2.39235318012433 2.32135990459488 2.45446999692284 2.4692642348406 2.79887203461238 3.54296474888887 4.03189494927555 5.01068477322915 5.60577317404106 7.41518295936935 7.50269652300338 7.22213729228509 7.06987056797609 6.63391492326041 3.84309788954337 3.1315903645749 3.36626856981423 2.9763079323345 2.69096899959072 2.32706892477595 2.06915627279673 1.91478417175475 1.86247331188502 1.96756922544053 2.03323281483682 1.93291659580503 1.91578944524069 1.7187796300806 1.56359199759425 1.37963145822556 1.22855964817029 0.878107173902859 1.02665638178231 0.880534935064937 0.945022608417281 0.771380092433939 0.641740944903334 0.500114680921117 0.382841970761952 0.309250178048297 0.304527407824932 0.300411574141207 0.239793180657073 0.208687368629911 0.191579173140236 0.123584147068856 0.152019218707553 0.163361460338592 0.162451047558512 0.135940360477741 0.115138728273685 0.067481401123951 -9999 -9999 -9999 -9999 -9999 -9999 -9999 -9999 -9999 -9999 -9999 -9999 -9999 -9999 -9999 -9999 -9999 -9999 -9999 -9999 -9999 -9999 -9999 -9999 -9999 -9999 -9999 -9999 -9999 -9999 -9999 -9999 -9999 -9999 -9999 -9999 -9999 -9999 -9999
3.95750655674918 2.27760308526906 2.26760755133746 2.23155132721096 2.23005295547119 2.33660927435394 2.5362934598171 3.44661258041003 4.00545500755211 4.90080925517103 7.63793087399681 6.92663200300944 7.84169297174173 5.82131380177234 5.21776607014944 8.25797958419143 9.22279097173503 4.87486246421375 3.56570614238551 2.83995443862456 3.0189835453493 2.66953636332222 2.4664761003316 2.25668252670978 2.18898948590384 1.99615242779012 1.83487639606422 1.79379395454324 1.80451031768806 1.85099828814615 1.57413764316346 1.72395763060587 1.54790632541408 1.53931428845059 1.27599601751312 0.977721644450592 0.890056357699857 1.06709392316427 0.78186881839138 0.768402283399223 0.712279066086206 0.588614487948817 0.437239212905751 0.389954581683141 0.315414440721631 0.255004681526479 0.259405014808416 0.261605181918245 0.258817036156604 0.223329861863413 0.169160228775385 0.165442705781797 0.169027459795632 0.129553616202296 0.193020662777046 0.12498770123789 -9999 -9999 -9999 -9999 -9999 -9999 -9999 -9999 -9999 -9999 -9999 -9999 -9999 -9999 -9999 -9999 -9999 -9999 -9999 -9999 -9999 -9999 -9999 -9999 -9999 -9999 -9999 -9999 -9999 -9999 -9999 -9999 -9999 -9999 -9999 -9999 -9999 -9999 -9999 -9999
2.51981117563386 2.05625875012907 2.43191830795896 2.50370822549852 2.23223413749931 2.62204308937114 4.74992710088708 6.75422236019061 8.77293262838865 10 9.26967733821579 8.6783634484628 7.19638020586057 6.39108107349984 5.3724037410334 6.50165838130169 5.81628729180918 3.81047474132458 3.28749877376214 3.93960174363011 3.26781101710064 2.58610068196289 2.19680390532317 2.28446913956157 1.9981818942033 2.02027839881356 1.95580969741485 1.88536645100364 1.68016291238336 1.66732228307131 1.65349537473223 1.58060534644387 1.22666295917634 1.17918866468066 0.908340508617717 0.740501883836227 0.870729019395845 0.924538288514152 0.753475294318391 0.642518594329982 0.564355762011421 0.516521090417933 0.387963049800014 0.346121945809535 0.309932993025247 0.282582638521728 0.217544936051148 0.205140548208411 0.255953027898893 0.182209498002737 0.159619849190358 0.177828130110387 0.156774806322235 0.154802242641856 0.12431873732495 0.0720524388534159 -9999 -9999 -9999 -9999 -9999 -9999 -9999 -9999 -9999 -9999 -9999 -9999 -9999 -9999 -9999 -9999 -9999 -9999 -9999 -9999 -9999 -9999 -9999 -9999 -9999 -9999 -9999 -9999 -9999 -9999 -9999 -9999 -9999 -9999 -9999 -9999 -9999 -9999 -9999 -9999
1.9185586002943 2.11384239527461 2.21738305123651 2.46615361462873 2.78432434957241 5.56245258962051 5.82068779481846 5.9238299572348 5.61353059508013 6.33032986227451 6.7006598164906 9.39093283270061 9.36748970947432 8.13545314135403 5.58426460494748 5.78457458731522 4.68428247594266 2.55969869915023 2.4450054901488 2.71522772927899 2.30556046070703 2.28536061883455 2.09940854195641 1.93881530551534 1.86759442655645 1.78222410854503 1.679555974906 1.66525486524911 1.56290919480766 1.37874001646138 1.58428493772056 1.424317625714 1.19172582900491 0.948303874938034 1.03589329637954 0.947450365828477 0.742322726275348 0.625201754236403 0.66042339432097 0.510167156969764 0.419694776884484 0.388190653229464 0.393710042019944 0.347980707775189 0.272188746076264 0.235165241132525 0.228071596538644 0.24335896646816 0.199128021779857 0.150027688699867 0.121834064990588 0.144066945052217 0.149567360951349 0.139538962742426 -9999 -9999 -9999 -9999 -9999 -9999 -9999 -9999 -9999 -9999 -9999 -9999 -9999 -9999 -9999 -9999 -9999 -9999 -9999 -9999 -9999 -9999 -9999 -9999 -9999 -9999 -9999 -9999 -9999 -9999 -9999 -9999 -9999 -9999 -9999 -9999 -9999 -9999 -9999 -9999 -9999 -9999
2.09857397104255 1.9940091821675 2.43326491907322 3.31022115779635 4.57065142628102 6.82794699690163 6.8983144755265 7.00754500717534 7.74173689725316 5.96013283926375 7.32668321423117 7.91211722369403 9.05834732891877 6.43563433228823 6.00813813841172 5.29621339550217 3.66862079139354 2.30905032494568 2.20376473686445 2.09811880919422 1.98892603390861 2.09838428901508 2.03457947096165 1.76060177524553 1.79104374143621 1.8246911500981 1.57994150810915 1.45811677249611 1.19233275522962 1.0311894934212 1.08355725039742 1.46409131000684 1.3232047646721 1.11807713637161 0.862706002258618 0.813353990722614 0.629602097833262 0.440767064186784 0.54925806848306 0.546735456930043 0.518797122836992 0.459468481807167 0.390827060870885 0.31488336292718 0.278220237894405 0.240457022742675 0.206088895518545 0.206164762703215 0.245976404969114 0.169255064162802 0.145755002570343 -9999 -9999 -9999 -9999 -9999 0.0670830960601339 -9999 -9999 -9999 -9999 -9999 -9999 -9999 -9999 -9999 -9999 -9999 -9999 -9999 -9999 -9999 -9999 -9999 -9999 -9999 -9999 -9999 -9999 -9999 -9999 -9999 -9999 -9999 -9999 -9999 -9999 -9999 -9999 -9999 -9999 -9999 -9999 -9999 -9999 -9999
2.20194391693061 2.13197481182313 3.45308029869396 4.23218602720551 4.47183351897491 4.26018123402432 4.89847629751389 6.5351918832242 8.52550858608957 6.49416643258172 8.21293321964745 8.05027262539827 5.68795690150671 5.6788718037982 3.99819072227567 3.10340548323038 2.62018430302477 2.25641702438364 2.10305021183113 2.01250194580677 1.75445649015215 1.74413846301592 1.8547158233301 1.6444670953617 1.56839064156633 1.6749470129614 1.54682521662595 1.31834923484618 1.09101127396454 0.78384139144896 0.792110987720145 1.1165407982193 1.04915121114851 1.00448402311546 0.896239586700499 0.753209754483446 0.549030466929051 0.421970803677222 0.476121470437942 0.497724835534692 0.479933831632108 0.454669837835092 0.402377940541786 0.405336785124634 0.307884554658437 0.235032475903653 0.221603867939791 0.189473840480105 0.185301112503058 0.165309936802044 0.0722610750178383 -9999 -9999 -9999 -9999 -9999 -9999 -9999 -9999 -9999 -9999 -9999 -9999 -9999 -9999 -9999 -9999 -9999 -9999 -9999 -9999 -9999 -9999 -9999 -9999 -9999 -9999 -9999 -9999 -9999 -9999 -9999 -9999 -9999 -9999 -9999 -9999 -9999 -9999 -9999 -9999 -9999 -9999 -9999 -9999 -9999
2.05550001451741 2.54589075526302 5.73493813525738 4.62749537528436 4.37916096427804 4.68433927927713 5.16175660203881 5.99434909146052 6.44310746659157 5.89242071397777 5.34055810533411 4.18528075628698 2.55279476846631 2.71171888558495 2.60529521284062 2.55029110073532 2.26170878161307 1.99977511070769 1.86713916718522 1.6466482998951 1.44804527573239 1.38351971848688 1.5792207614153 1.53715204836905 1.47846829247472 1.52888245209786 1.58629542467835 1.38786313309477 1.00372534001612 1.03255510274526 0.795676784783874 0.823027132723352 0.930418033772592 0.784125899486653 0.694431153824498 0.583076153460873 0.479213086813703 0.365088903264864 0.383581689409425 0.408940505465777 0.414232288951367 0.413777083967907 0.317595639628712 0.306955177426491 0.285313877799686 0.25250104192709 0.213467044399239 0.207397616175602 0.186633919439321 0.165841010845614 0.151027818790906 0.137864748786548 0.0876089504008887 -9999 -9999 -9999 -9999 -9999 -9999 -9999 -9999 -9999 -9999 -9999 -9999 -9999 -9999 -9999 -9999 -9999 -9999 -9999 -9999 -9999 -9999 -9999 -9999 -9999 -9999 -9999 -9999 -9999 -9999 -9999 -9999 -9999 -9999 -9999 -9999 -9999 -9999 -9999 -9999 -9999 -9999 -9999
1.82681541626534 2.46778480504742 4.17841475450679 4.63917906800786 5.46418475644321 6.0305001678534 6.02414626628772 5.74899259451358 4.66480340326931 4.24952183175096 3.2135656030982 2.55582939583901 2.10820922539924 2.20224740067281 2.25434959905968 2.18745315525329 2.08370395033493 1.79009539131292 1.63695618969162 1.43262516589244 1.44817807190602 1.26457788712985 1.43522359586868 1.37083080478976 1.33534362674569 1.40394709627296 1.45453198097347 1.34695140164763 1.07162704230493 0.7681367585678 0.571695974486619 0.646710293322937 0.653064223020225 0.597604825287527 0.570387251016402 0.510831006557127 0.458501167232005 0.351186125865675 0.332238129111333 0.323854738627183 0.334950405812864 0.29434215060617 0.218777791398975 0.256559971940293 0.277973670013088 0.185983921853687 0.205121581881103 0.182209497065017 0.169862009141922 0.155428152072843 0.13951487458778 0.0795531130591844 -9999 -9999 -9999 -9999 -9999 -9999 -9999 -9999 -9999 -9999 -9999 -9999 -9999 -9999 -9999 -9999 -9999 -9999 -9999 -9999 -9999 -9999 -9999 -9999 -9999 -9999 -9999 -9999 -9999 -9999 -9999 -9999 -9999 -9999 -9999 -9999 -9999 -9999 -9999 -9999 -9999 -9999 -9999 -9999
1.73611541962253 1.96578633441043 3.04199048618265 4.24074021028288 5.1131063314851 4.3445651979911 3.79184914400286 3.74593014460959 3.36695138010258 3.10408830852225 2.10697636348738 2.02291480270411 1.90439027930929 1.91605497007211 1.99328842047013 1.9701108145735 1.81642154632516 1.74906986565282 1.51668670417043 1.30933991992752 1.18298206517384 1.12938143503311 1.34348044184676 1.27834791711685 1.13687337250045 1.3721015881036 1.30784155568952 1.03962976975919 1.03469837837493 0.777942666735131 0.533268921937887 0.394563556755821 0.503813229147916 0.475514527334263 0.470981426948013 0.443479337137434 0.39623264419576 0.406247196966994 0.334684867853359 0.275109658004497 0.264829563522878 0.262970802494944 0.212803199500476 0.179288583261343 0.239337976611334 0.183347511399106 0.112664299594001 -9999 -9999 -9999 -9999 -9999 -9999 -9999 -9999 -9999 -9999 -9999 -9999 -9999 -9999 -9999 -9999 -9999 -9999 -9999 -9999 -9999 -9999 -9999 -9999 -9999 -9999 -9999 -9999 -9999 -9999 -9999 -9999 -9999 -9999 -9999 -9999 -9999 -9999 -9999 -9999 -9999 -9999 -9999 -9999 -9999 -9999 -9999 -9999 -9999
1.9658052988623 2.03156370301616 3.02321317324599 3.1887567842776 3.43549788125663 3.14319819949093 2.95015250239963 3.00352550660562 2.67255208625714 2.11410795011307 1.89820705030865 2.01117424663205 1.81704741824734 1.75045445818315 1.79933230966103 1.80515517656739 1.5906199273467 1.51241913986825 1.49933194267488 1.34989128177861 1.1251517921329 1.03397763168108 1.13617158650759 1.17552804535759 0.95989269288987 0.933130321726765 1.00480644505336 0.882526468823503 0.86714426913289 0.734091073911419 0.535582892637881 0.34978257075892 0.380945274266243 0.37584316905725 0.391149499687753 0.379522756583062 0.366302783845902 0.339711109628563 0.341190535670868 0.282392964933732 0.196851986547638 0.186287391530087 0.192622355837788 0.188866899251866 0.13299175767413 -9999 -9999 -9999 -9999 -9999 -9999 -9999 -9999 -9999 -9999 -9999 -9999 -9999 -9999 -9999 -9999 -9999 -9999 -9999 -9999 -9999 -9999 -9999 -9999 -9999 -9999 -9999 -9999 -9999 -9999 -9999 -9999 -9999 -9999 -9999 -9999 -9999 -9999 -9999 -9999 -9999 -9999 -9999 -9999 -9999 -9999 -9999 -9999 -9999 -9999 -9999
2.02376833806983 2.33450395763505 2.69561581542144 2.64660520527873 2.74836303772638 2.89693121380858 2.78872467253943 2.48775699097812 2.11562533881704 1.9585030321698 1.83586268259301 1.913134054393 1.75352710448072 1.52034729348645 1.53952292742817 1.5162694187135 1.51020002143463 1.37375171296712 1.30852433597082 1.237246511144 1.28358278849243 1.10618483092669 0.932750983927975 1.10415537951703 1.12545526837334 0.822420183993352 0.650503680688034 0.783082715851381 0.65763525981197 0.562117652869776 0.489777685582135 0.403003848097333 0.270880025419207 0.313422907900784 0.3245565133674 0.296428514125834 0.366151055102883 0.306917243834156 0.241253633808029 0.250812984408964 0.256541003737545 0.208990841119471 0.174129572506387 0.0982545334927284 -9999 -9999 -9999 -9999 -9999 -9999 -9999 -9999 -9999 -9999 -9999 -9999 -9999 -9999 -9999 -9999 -9999 -9999 -9999 -9999 -9999 -9999 -9999 -9999 -9999 -9999 -9999 -9999 -9999 -9999 -9999 -9999 -9999 -9999 -9999 -9999 -9999 -9999 -9999 -9999 -9999 -9999 -9999 -9999 -9999 -9999 -9999 -9999 -9999 -9999 -9999 -9999
2.05555692287653 2.16660851451557 2.42078468936426 2.54004893140655 2.62223273388982 2.59837233270836 2.61766168584543 2.18804115078406 1.96978835137591 1.93559093610107 1.86067144139953 1.57146328036214 1.47264544807364 1.34528231983402 1.27948592676234 1.29665102123393 1.33530569784196 1.39402739014178 1.31772333291696 1.21812782307021 1.1416720202234 1.04903738692851 0.973966169110266 0.788867642601365 0.914106467164954 0.769692038666693 0.512139724401024 0.714232655937516 0.519916183034135 0.484049659689513 0.438016854830638 0.365164768574093 0.288348586754043 0.239337972860453 0.260296461261188 0.315490308844021 0.350730911505014 0.253904594220684 0.206866541194312 0.24872661713842 0.241727810745117 0.212973900197123 0.133190152059316 -9999 -9999 -9999 -9999 -9999 -9999 -9999 -9999 -9999 -9999 -9999 -9999 -9999 -9999 -9999 -9999 -9999 -9999 -9999 -9999 -9999 -9999 -9999 -9999 -9999 -9999 -9999 -9999 -9999 -9999 -9999 -9999 -9999 -9999 -9999 -9999 -9999 -9999 -9999 -9999 -9999 -9999 -9999 -9999 -9999 -9999 -9999 -9999 -9999 -9999 -9999 -9999 -9999
2.65404033566072 2.51432972887519 2.5303567761925 2.39455337161488 2.44904544351978 2.37643996452879 2.4211450589603 2.19265012023042 1.99163830310838 1.78823665747887 1.7632571510897 1.61965831404991 1.32876208424175 1.27713404216213 1.1198789693483 1.09558231450717 1.20997205852079 1.18157850068988 1.24312627140596 1.37746923314754 1.3838990300295 1.31256430434532 1.04833560468653 0.685516687421339 0.570121718683217 0.689234209477206 0.522097374439455 0.557281081869407 0.449700504419011 0.422957086455131 0.377910564374166 0.314485065365124 0.278125403444708 0.21020472638911 0.217772545106919 0.264412291194033 0.212973903010284 0.169918908123844 0.143099628601615 0.124741130543413 0.126239520099864 0.140156147625343 0.0655467719736273 -9999 -9999 -9999 -9999 -9999 -9999 -9999 -9999 -9999 -9999 -9999 -9999 -9999 -9999 -9999 -9999 -9999 -9999 -9999 -9999 -9999 -9999 -9999 -9999 -9999 -9999 -9999 -9999 -9999 -9999 -9999 -9999 -9999 -9999 -9999 -9999 -9999 -9999 -9999 -9999 -9999 -9999 -9999 -9999 -9999 -9999 -9999 -9999 -9999 -9999 -9999 -9999 -9999
2.70176124304828 2.52891528280481 2.23488956585581 2.30140666061076 2.31542319096323 2.18771870259 2.09620314449576 2.0154987493004 1.85494341175602 1.63583715199976 1.51520727437725 1.61539076475124 1.46976243879298 1.37557251789743 1.26169491535799 1.09806698027749 0.972828163215659 1.03900388283349 1.33200543311141 1.38848902752223 1.22175049848602 1.10925749597867 1.0700337957935 1.00520475855666 0.733446186900483 0.574389282985402 0.458539103637501 0.554284308382824 0.430714576885495 0.351129217506551 0.301587531444832 0.289126234305251 0.269021257827232 0.2451797957792 0.183347514212266 0.185016604465365 0.185035574543553 0.0720714061184435 -9999 -9999 -9999 -9999 -9999 -9999 -9999 -9999 -9999 -9999 -9999 -9999 -9999 -9999 -9999 -9999 -9999 -9999 -9999 -9999 -9999 -9999 -9999 -9999 -9999 -9999 -9999 -9999 -9999 -9999 -9999 -9999 -9999 -9999 -9999 -9999 -9999 -9999 -9999 -9999 -9999 -9999 -9999 -9999 -9999 -9999 -9999 -9999 -9999 -9999 -9999 -9999 -9999 -9999 -9999 -9999 -9999 -9999
